//X,Y,Z,M3C2 distance,R,G,B,Nx,Ny,Nz
47549.008,36094.047,2003.699,-0.273,57,49,49,-0.311736,0.861497,0.400803
47550.094,36091.461,2009.819,0.109,51,44,44,-0.422278,0.787928,0.448164
47550.453,36089.527,2013.510,-0.092,54,47,47,-0.644256,0.677043,0.355734
47550.988,36089.676,2014.290,-0.155,49,43,43,-0.707280,0.643128,0.293497
47551.711,36088.020,2017.729,-0.387,53,47,47,-0.742916,0.449703,0.495826
47552.270,36086.949,2019.946,-0.525,63,57,57,-0.787392,0.405822,0.464028
47553.066,36086.957,2021.106,-0.489,52,46,48,-0.758422,0.437362,0.483228
47553.113,36084.324,2022.580,-0.498,43,38,39,-0.901392,0.063900,0.428263
47553.063,36083.813,2022.521,-0.339,48,43,45,-0.905071,0.033226,0.423961
47553.688,36083.258,2023.917,-0.364,43,38,40,-0.934570,-0.021794,0.355111
47556.039,36074.414,2027.809,-0.250,42,37,39,-0.790408,0.113336,0.602005
47556.793,36073.762,2028.856,-0.136,36,33,35,-0.850506,0.183209,0.493025
47557.434,36072.039,2031.449,0.065,23,20,22,-0.755934,0.441098,0.483732
47557.301,36070.738,2032.458,0.026,32,26,29,-0.568546,0.685256,0.455170
47558.723,36069.652,2035.552,0.062,72,63,64,-0.625055,0.517229,0.584620
47559.430,36067.488,2040.890,0.424,59,51,53,-0.492508,0.630343,0.600086
47560.172,36063.254,2045.156,0.225,51,45,45,-0.265966,0.683229,0.680044
47561.805,36062.109,2046.211,0.284,56,49,51,-0.243847,0.640296,0.728395
47549.367,36091.191,2009.597,0.009,55,48,48,-0.470026,0.747095,0.470026
47549.902,36091.023,2010.433,0.071,59,50,50,-0.466297,0.749700,0.469592
47549.828,36090.035,2011.885,-0.001,65,55,55,-0.538870,0.714624,0.446018
47549.828,36088.395,2014.281,-0.140,53,48,47,-0.664371,0.594085,0.453513
47550.582,36089.129,2014.504,-0.194,58,52,51,-0.707465,0.619642,0.339908
47551.828,36087.512,2018.253,-0.433,48,43,43,-0.760760,0.430279,0.485905
47551.895,36086.844,2019.171,-0.487,53,48,49,-0.805045,0.363311,0.468943
47552.219,36086.172,2020.398,-0.529,60,54,54,-0.835404,0.287802,0.468262
47552.688,36085.500,2021.584,-0.532,45,41,42,-0.840812,0.230422,0.489838
47552.980,36084.820,2022.185,-0.483,43,39,40,-0.864545,0.185365,0.467121
47553.234,36081.113,2022.609,-0.386,42,37,39,-0.850780,0.216095,0.479036
47555.309,36076.844,2026.704,-0.383,40,36,38,-0.788749,0.076424,0.609947
47555.750,36073.801,2027.611,-0.260,40,37,38,-0.739031,0.175960,0.650286
47556.305,36073.617,2028.319,-0.197,32,29,30,-0.804868,0.180375,0.565378
47556.223,36073.066,2028.498,-0.143,25,22,23,-0.780245,0.331644,0.530310
47557.660,36071.285,2032.411,0.040,25,20,22,-0.668137,0.584411,0.460496
47558.238,36070.309,2034.502,0.068,59,50,51,-0.629792,0.572385,0.525108
47560.703,36066.875,2041.721,0.423,46,39,41,-0.307467,0.546431,0.779023
47621.660,35884.910,2057.250,0.264,71,59,56,0.003489,-0.208177,0.978085
47548.660,36093.656,2004.490,-0.294,70,59,59,-0.318945,0.858225,0.402149
47548.898,36092.875,2006.119,-0.217,76,66,65,-0.317920,0.851406,0.417174
47549.777,36091.938,2008.844,0.011,53,47,47,-0.390078,0.816777,0.425106
47549.328,36090.000,2011.307,0.020,61,52,53,-0.582688,0.679524,0.445781
47552.488,36085.914,2020.938,-0.553,55,49,50,-0.837029,0.276947,0.471893
47552.605,36083.211,2021.463,-0.334,35,32,33,-0.872216,-0.009379,0.489031
47554.809,36076.211,2026.314,-0.470,40,34,35,-0.700772,0.133552,0.700772
47556.715,36072.848,2029.442,-0.054,26,21,24,-0.814780,0.341477,0.468538
47557.539,36070.621,2033.065,0.036,36,29,32,-0.596065,0.639720,0.485247
47557.246,36069.316,2034.690,0.194,66,55,57,-0.501840,0.662965,0.555548
47559.070,36067.000,2041.101,0.416,58,51,51,-0.502724,0.576704,0.643958
47559.402,36066.129,2041.698,0.409,52,45,45,-0.423135,0.528508,0.735959
47560.293,36063.879,2044.443,0.316,49,43,45,-0.323064,0.689961,0.647752
47561.957,36060.465,2048.521,0.231,80,71,70,-0.145646,0.773274,0.617118
47549.633,36089.207,2012.893,-0.084,60,51,51,-0.602958,0.676043,0.423565
47550.762,36087.242,2017.042,-0.265,49,45,45,-0.758008,0.407654,0.509158
47551.277,36087.016,2017.877,-0.389,50,45,46,-0.773329,0.371263,0.513932
47551.656,36086.691,2018.767,-0.467,49,45,46,-0.795811,0.333316,0.505555
47553.723,36079.070,2024.207,-0.488,45,40,42,-0.750034,0.260538,0.607922
47556.137,36071.719,2029.705,-0.051,25,22,23,-0.750624,0.545464,0.372870
47556.660,36072.066,2030.223,-0.061,24,20,22,-0.729753,0.524562,0.438514
47557.215,36071.004,2031.807,-0.014,42,36,38,-0.602750,0.659519,0.449141
47556.715,36070.328,2032.314,0.067,53,45,47,-0.459346,0.780726,0.423637
47557.074,36069.840,2033.837,0.176,62,51,53,-0.492330,0.731036,0.472438
47558.305,36067.617,2038.332,0.347,37,30,31,-0.594195,0.739121,0.317226
47558.762,36067.734,2039.022,0.367,54,45,45,-0.594800,0.739873,0.314325
47559.102,36067.758,2039.527,0.364,53,44,45,-0.580707,0.733611,0.352979
47558.680,36067.195,2040.067,0.396,57,48,50,-0.589507,0.685820,0.426770
47559.227,36065.406,2042.077,0.343,43,36,37,-0.409388,0.591706,0.694468
47558.973,36063.523,2044.065,0.206,47,40,42,-0.328521,0.739576,0.587453
47560.844,36062.211,2046.226,0.238,67,59,60,-0.162925,0.677583,0.717172
47561.602,36060.891,2047.703,0.159,53,45,46,-0.142233,0.780035,0.609356
47548.715,36091.508,2008.455,-0.168,54,46,46,-0.459258,0.752261,0.472426
47553.141,36081.965,2022.367,-0.335,36,32,34,-0.884756,0.017348,0.465731
47547.875,36093.504,2004.117,-0.327,73,62,61,-0.362198,0.841992,0.399828
47547.977,36093.133,2004.800,-0.330,70,60,58,-0.372280,0.837236,0.400554
47548.063,36092.719,2005.714,-0.360,68,59,58,-0.392055,0.811314,0.433661
47548.055,36092.406,2006.380,-0.342,59,49,48,-0.408682,0.806145,0.427914
47548.375,36092.117,2007.111,-0.277,65,55,54,-0.407927,0.798118,0.443399
47547.875,36095.160,1998.091,-0.486,50,43,44,-0.474629,0.850693,0.225942
47547.480,36094.172,2001.167,-0.583,52,45,46,-0.463908,0.856794,0.225154
47547.629,36093.879,2002.577,-0.411,58,50,50,-0.439478,0.849658,0.291444
47549.070,36090.613,2010.163,0.029,70,59,59,-0.540243,0.684085,0.490066
47548.715,36089.715,2010.952,-0.005,52,45,46,-0.616589,0.630030,0.472102
47556.617,36071.293,2030.822,-0.007,29,24,27,-0.612538,0.629320,0.478283
47556.371,36069.793,2033.420,0.206,59,50,51,-0.400609,0.783378,0.475217
47556.469,36069.008,2034.518,0.248,60,51,51,-0.375152,0.719178,0.584844
47557.270,36068.969,2035.046,0.188,77,67,69,-0.499627,0.627478,0.597197
47559.379,36064.113,2043.540,0.265,46,40,40,-0.361841,0.715495,0.597610
47559.848,36062.227,2045.993,0.202,56,49,51,-0.169563,0.716443,0.676726
47560.914,36061.461,2046.944,0.222,59,52,53,-0.136489,0.745441,0.652448
47560.133,36060.824,2047.598,0.141,53,46,47,-0.113070,0.800299,0.588844
47551.859,36085.348,2020.022,-0.546,52,47,48,-0.858212,0.202197,0.471792
47554.637,36077.531,2025.786,-0.483,30,26,28,-0.747407,0.145872,0.648154
47548.113,36090.836,2008.782,-0.177,64,54,52,-0.509556,0.693330,0.509556
47549.008,36088.059,2013.792,-0.044,48,43,42,-0.617035,0.613672,0.492619
47550.215,36087.934,2015.489,-0.127,49,45,46,-0.697388,0.513425,0.500045
47551.070,36085.961,2018.284,-0.339,55,51,50,-0.813897,0.290117,0.503393
47551.301,36085.520,2018.800,-0.430,46,42,42,-0.835112,0.214482,0.506543
47551.938,36083.094,2020.276,-0.408,36,32,33,-0.832749,0.063623,0.549982
47552.402,36081.113,2021.029,-0.576,31,27,29,-0.735619,0.293286,0.610612
47553.648,36077.617,2024.786,-0.611,38,33,34,-0.659194,0.272935,0.700693
47555.133,36075.035,2026.824,-0.407,39,35,36,-0.710013,0.130045,0.692076
47556.250,36070.555,2031.553,0.118,46,39,42,-0.476311,0.775427,0.414537
47556.410,36069.965,2033.058,0.142,61,51,52,-0.399884,0.801374,0.444851
47557.402,36068.270,2035.754,0.258,100,93,94,-0.504260,0.622315,0.598704
47558.172,36068.375,2036.478,0.250,107,100,102,-0.598371,0.655359,0.460930
47558.512,36066.660,2040.627,0.380,60,51,52,-0.559132,0.596295,0.576024
47558.465,36065.883,2041.228,0.395,59,51,51,-0.468361,0.606016,0.642948
47558.105,36064.871,2041.813,0.342,39,33,34,-0.384690,0.678574,0.625741
47559.457,36064.910,2042.742,0.354,44,37,38,-0.366387,0.688412,0.625979
47559.156,36063.109,2044.824,0.168,44,39,40,-0.300420,0.734181,0.608872
47560.395,36060.496,2048.163,0.154,53,45,47,-0.106512,0.803946,0.585086
47548.570,36091.855,2007.695,-0.231,65,55,54,-0.424506,0.775821,0.466794
47552.504,36080.477,2021.456,-0.652,32,28,29,-0.694041,0.405823,0.594655
47546.504,36093.047,2003.197,-0.562,70,60,59,-0.487151,0.800206,0.349791
47547.051,36092.824,2004.464,-0.435,74,63,61,-0.468457,0.796860,0.381527
47547.547,36091.773,2006.995,-0.416,71,57,56,-0.448426,0.771293,0.451687
47548.727,36089.215,2011.600,-0.023,52,46,46,-0.642171,0.635499,0.428670
47550.465,36085.887,2017.571,-0.261,50,47,47,-0.788075,0.248127,0.563357
47552.594,36079.926,2022.115,-0.625,44,38,39,-0.654312,0.492837,0.573574
47553.133,36078.160,2024.135,-0.698,42,37,39,-0.596913,0.358148,0.717931
47553.406,36076.996,2024.811,-0.680,34,29,30,-0.623246,0.219146,0.750693
47555.883,36072.246,2028.434,-0.110,28,22,25,-0.761111,0.414110,0.499223
47555.551,36069.430,2033.434,0.320,53,45,46,-0.373080,0.780077,0.502286
47557.449,36067.270,2037.505,0.395,42,34,36,-0.613154,0.719930,0.325182
47560.414,36059.895,2049.134,0.167,70,61,63,-0.111149,0.721727,0.683195
47620.516,35884.602,2057.115,0.083,70,60,57,-0.075265,-0.215923,0.973505
47547.668,36091.254,2007.825,-0.325,75,62,62,-0.486210,0.700075,0.522968
47548.191,36088.672,2011.465,0.009,42,38,38,-0.655755,0.619047,0.432165
47550.371,36084.645,2017.654,-0.235,41,37,38,-0.795980,0.128958,0.591427
47550.625,36083.449,2018.185,-0.375,39,35,37,-0.809200,0.128234,0.573368
47551.090,36083.172,2019.083,-0.324,33,29,30,-0.829483,0.139966,0.540711
47551.527,36081.453,2020.067,-0.538,24,21,23,-0.622560,0.416700,0.662404
47552.270,36080.246,2021.321,-0.729,32,27,28,-0.592524,0.514872,0.619534
47552.383,36079.348,2022.439,-0.679,41,36,37,-0.541745,0.575499,0.612628
47554.152,36073.457,2026.210,-0.395,29,25,26,-0.656231,0.301511,0.691702
47555.723,36070.664,2030.978,0.036,38,32,34,-0.541998,0.762033,0.354321
47555.906,36069.887,2032.786,0.232,58,48,50,-0.393794,0.814692,0.425680
47558.289,36064.332,2042.493,0.248,40,34,36,-0.329489,0.719032,0.611907
47559.078,36061.688,2046.311,0.168,49,43,45,-0.165420,0.766396,0.620705
47550.715,36084.855,2018.144,-0.277,47,43,43,-0.818340,0.156513,0.553013
47546.609,36092.273,2004.927,-0.562,81,68,66,-0.482650,0.778415,0.401396
47546.438,36093.336,2002.090,-0.766,57,50,50,-0.489862,0.836911,0.244163
47546.137,36094.359,1997.456,-0.899,49,43,44,-0.473728,0.852105,0.222486
47545.957,36093.609,2000.148,-1.053,51,45,45,-0.472501,0.849286,0.235491
47547.773,36090.230,2009.152,-0.223,68,56,56,-0.574440,0.631715,0.520533
47547.934,36089.387,2010.289,-0.021,59,51,52,-0.620071,0.579522,0.528835
47548.613,36088.070,2013.264,-0.023,58,53,53,-0.640810,0.637481,0.427762
47549.777,36086.531,2016.190,-0.134,61,55,56,-0.700955,0.387587,0.598698
47550.082,36084.055,2017.337,-0.235,41,36,38,-0.749372,0.139662,0.647253
47551.527,36079.586,2021.469,-0.846,30,25,27,-0.421356,0.651187,0.631201
47552.734,36078.746,2023.407,-0.707,42,37,39,-0.554251,0.487272,0.674813
47552.438,36077.848,2023.840,-0.734,37,32,34,-0.561247,0.374710,0.737966
47552.660,36076.961,2024.311,-0.727,36,31,33,-0.570673,0.197364,0.797107
47553.832,36075.289,2025.651,-0.664,52,44,45,-0.672500,0.126746,0.729163
47554.508,36072.156,2027.097,-0.284,44,39,40,-0.612148,0.372540,0.697487
47555.129,36071.992,2027.712,-0.157,27,23,25,-0.686404,0.420485,0.593332
47555.438,36071.023,2029.283,-0.011,29,23,27,-0.695694,0.647270,0.311529
47555.684,36071.004,2030.016,-0.043,30,25,28,-0.641449,0.687150,0.341127
47555.227,36070.508,2030.874,0.094,29,25,28,-0.518860,0.798124,0.306239
47555.695,36070.402,2031.684,0.187,44,36,39,-0.478310,0.779888,0.403726
47557.844,36066.379,2040.175,0.382,56,48,49,-0.546353,0.686701,0.479521
47557.652,36064.922,2041.416,0.297,36,31,32,-0.327394,0.746717,0.578988
47557.074,36064.422,2042.032,0.217,39,34,35,-0.224890,0.786340,0.575408
47558.723,36063.805,2043.486,0.206,42,35,37,-0.331716,0.733011,0.593852
47558.203,36062.828,2044.067,0.122,39,34,35,-0.266886,0.762757,0.589044
47619.969,35884.305,2056.867,0.014,69,60,55,-0.091101,-0.215896,0.972157
47558.473,36062.418,2045.203,0.120,38,33,35,-0.245848,0.778256,0.577820
47547.426,36089.594,2009.507,-0.103,59,51,52,-0.623529,0.569456,0.535660
47549.508,36086.879,2015.579,-0.044,62,57,57,-0.665132,0.480838,0.571310
47549.645,36084.145,2016.867,-0.223,40,36,37,-0.638278,0.169090,0.751005
47550.750,36080.750,2019.802,-0.803,24,20,22,-0.485083,0.646218,0.589149
47550.816,36080.352,2020.216,-0.952,26,22,24,-0.420931,0.673823,0.607272
47551.828,36078.621,2022.682,-0.736,42,36,36,-0.476941,0.547228,0.687800
47553.641,36073.969,2025.548,-0.506,30,25,27,-0.673235,0.233828,0.701483
47554.371,36070.098,2029.076,0.120,37,32,33,-0.616517,0.756281,0.218964
47555.004,36068.063,2034.703,0.449,61,55,54,-0.344726,0.638804,0.687818
47556.191,36066.242,2037.753,0.527,34,29,32,-0.541003,0.798175,0.265013
47619.531,35884.270,2056.700,0.005,69,60,54,-0.080556,-0.216882,0.972869
47546.406,36091.656,2005.952,-0.527,80,63,60,-0.483399,0.761969,0.430963
47550.758,36082.102,2018.782,-0.529,28,24,26,-0.756496,0.375808,0.535241
47549.035,36087.379,2014.567,0.012,39,36,36,-0.633125,0.528449,0.565592
47550.355,36081.871,2018.280,-0.549,30,23,26,-0.703373,0.437322,0.560371
47551.227,36078.461,2022.523,-0.736,42,35,36,-0.427421,0.536339,0.727771
47554.590,36071.109,2027.683,-0.068,28,24,25,-0.650360,0.502474,0.569695
47554.926,36070.578,2029.586,0.051,30,25,28,-0.635026,0.724152,0.268971
47555.203,36069.711,2032.884,0.334,56,46,48,-0.401233,0.810460,0.426810
47618.770,35884.516,2056.922,-0.057,69,57,54,-0.027262,-0.207427,0.977871
47555.656,36066.500,2036.022,0.482,45,39,41,-0.401196,0.698378,0.592714
47556.660,36067.023,2036.290,0.405,52,45,47,-0.532838,0.670670,0.516029
47556.129,36066.262,2036.743,0.496,45,38,41,-0.468862,0.766190,0.439456
47556.805,36066.707,2037.571,0.480,42,35,38,-0.590895,0.747826,0.302653
47557.895,36063.246,2043.651,0.190,31,27,28,-0.218600,0.776727,0.590685
47559.344,36060.262,2048.272,0.126,51,46,47,-0.091478,0.797168,0.596787
47545.926,36091.184,2006.234,-0.599,81,63,60,-0.519293,0.718383,0.462884
47546.551,36091.094,2006.975,-0.583,85,69,67,-0.502755,0.703189,0.502755
47547.477,36090.758,2008.327,-0.328,73,62,61,-0.526406,0.667678,0.526406
47546.770,36088.734,2009.580,-0.199,45,39,40,-0.622499,0.544897,0.561767
47547.016,36088.270,2010.283,-0.122,59,51,51,-0.639485,0.561870,0.524749
47547.746,36087.996,2011.486,-0.013,53,48,49,-0.677938,0.614951,0.402785
47548.469,36087.195,2014.011,0.020,47,43,42,-0.613748,0.576551,0.539354
47549.258,36085.500,2016.083,-0.043,56,51,52,-0.644580,0.308558,0.699506
47549.746,36082.703,2017.124,-0.384,24,19,22,-0.675400,0.248332,0.694381
47552.977,36075.133,2024.831,-0.684,39,34,36,-0.724590,0.046977,0.687577
47552.660,36074.629,2024.463,-0.600,34,29,32,-0.772599,0.004132,0.634881
47552.809,36074.055,2024.547,-0.600,33,27,30,-0.780315,0.154860,0.605910
47552.953,36073.543,2024.750,-0.530,30,24,27,-0.765271,0.242571,0.596254
47553.301,36073.039,2025.650,-0.473,29,24,26,-0.658045,0.347800,0.667842
47553.266,36071.602,2026.572,-0.087,49,43,45,-0.578409,0.422619,0.697737
47554.160,36069.543,2031.373,0.278,45,39,41,-0.534128,0.809707,0.243067
47555.098,36069.945,2032.167,0.248,44,37,39,-0.426345,0.825746,0.369288
47554.797,36069.496,2032.938,0.334,52,43,45,-0.413475,0.802816,0.429563
47555.434,36067.789,2035.205,0.446,77,69,70,-0.368964,0.614940,0.696932
47555.344,36065.641,2038.121,0.441,25,22,24,-0.420033,0.877435,0.231691
47556.148,36065.316,2040.415,0.284,25,22,22,-0.289696,0.844302,0.450811
47558.223,36061.715,2045.967,0.100,40,36,38,-0.127972,0.822255,0.554544
47558.203,36060.855,2047.235,0.080,42,39,40,-0.054824,0.827977,0.558076
47545.793,36091.773,2004.872,-0.632,105,89,85,-0.511054,0.762499,0.396761
47545.672,36092.090,2004.099,-0.653,80,68,67,-0.501807,0.774633,0.384881
47544.805,36093.496,1997.928,-0.778,49,43,44,-0.493293,0.850967,0.180327
47547.051,36089.828,2008.878,-0.299,79,68,69,-0.560297,0.583995,0.587381
47546.895,36087.754,2010.704,-0.090,62,55,55,-0.647506,0.617389,0.446729
47548.086,36088.020,2012.474,-0.005,57,53,53,-0.666960,0.627240,0.402162
47548.695,36085.930,2015.407,0.035,54,49,50,-0.637439,0.417747,0.647425
47548.117,36085.164,2015.464,-0.050,36,32,32,-0.533678,0.402311,0.743864
47548.258,36084.074,2015.952,-0.136,26,23,24,-0.453871,0.304140,0.837556
47548.684,36083.242,2016.346,-0.180,22,20,21,-0.470668,0.242188,0.848420
47549.238,36081.789,2017.126,-0.556,39,32,34,-0.555121,0.461767,0.691818
47550.074,36080.277,2020.034,-0.856,31,26,27,-0.396294,0.721880,0.567309
47550.207,36079.621,2020.813,-0.795,30,25,27,-0.315040,0.699550,0.641389
47549.723,36079.340,2021.376,-0.567,42,36,36,-0.336820,0.645978,0.685029
47552.063,36078.160,2023.386,-0.741,42,35,37,-0.542305,0.436166,0.718098
47552.285,36075.891,2024.192,-0.681,49,43,44,-0.637566,0.009681,0.770335
47554.461,36070.383,2028.172,0.047,32,27,29,-0.649259,0.642617,0.406825
47556.734,36065.852,2039.603,0.419,33,26,27,-0.442877,0.786796,0.429899
47555.859,36065.434,2040.032,0.342,29,24,24,-0.327084,0.851038,0.410792
47556.988,36064.668,2041.656,0.265,33,28,29,-0.241307,0.795534,0.555784
47556.754,36063.395,2043.452,0.151,37,32,34,-0.052377,0.805478,0.590306
47618.289,35884.570,2056.940,-0.126,70,59,57,-0.003481,-0.207705,0.978185
47619.063,35883.879,2056.564,-0.052,69,58,54,-0.034336,-0.200097,0.979174
47545.328,36091.426,2004.811,-0.675,102,86,83,-0.522693,0.752088,0.401441
47545.641,36090.152,2007.211,-0.624,82,70,71,-0.544649,0.628960,0.554767
47546.090,36088.992,2008.743,-0.381,57,50,52,-0.586414,0.528956,0.613453
47549.309,36081.230,2017.474,-0.505,51,43,45,-0.507882,0.609121,0.609121
47549.711,36080.848,2018.421,-0.888,30,24,26,-0.517722,0.714156,0.471110
47550.285,36080.910,2019.246,-0.803,24,20,22,-0.523499,0.661527,0.536965
47549.777,36080.520,2019.486,-1.138,31,25,27,-0.456351,0.749602,0.479416
47549.355,36079.727,2020.550,-0.505,40,32,34,-0.345421,0.741115,0.575702
47551.902,36076.848,2023.889,-0.696,47,40,42,-0.589199,0.154421,0.793095
47552.273,36075.262,2024.164,-0.668,38,33,35,-0.723087,-0.052979,0.688722
47551.871,36074.723,2023.570,-0.655,25,21,23,-0.768822,-0.132864,0.625508
47552.137,36073.676,2023.597,-0.588,23,17,20,-0.834949,0.146301,0.530525
47552.512,36072.430,2025.338,-0.301,32,26,27,-0.716304,0.415224,0.560801
47552.570,36071.945,2025.855,-0.195,50,42,43,-0.630314,0.424090,0.650271
47553.445,36069.941,2027.577,0.147,33,27,30,-0.567225,0.641284,0.516730
47555.371,36065.730,2036.975,0.579,34,30,33,-0.397563,0.846576,0.353909
47617.914,35884.770,2056.860,-0.133,73,62,59,0.010552,-0.214559,0.976654
47554.984,36065.109,2039.599,0.286,31,27,29,-0.328616,0.889814,0.316612
47556.629,36064.941,2041.059,0.275,25,20,22,-0.262736,0.816191,0.514589
47557.523,36064.996,2041.195,0.297,35,30,31,-0.323728,0.748922,0.578200
47556.906,36063.863,2042.764,0.214,46,40,41,-0.097159,0.807722,0.581502
47545.332,36092.438,2002.802,-0.834,63,55,54,-0.508481,0.787584,0.348077
47544.352,36091.676,2003.258,-0.835,72,64,62,-0.529261,0.760507,0.376182
47551.688,36070.328,2018.590,-0.336,18,14,18,-0.892935,0.448488,0.039057
47545.656,36091.395,2005.512,-0.643,99,78,76,-0.514556,0.747996,0.419207
47545.293,36090.945,2006.003,-0.706,106,89,87,-0.550039,0.690474,0.469790
47545.586,36089.633,2007.741,-0.541,78,68,68,-0.573760,0.560220,0.597455
47547.262,36087.418,2011.758,0.010,51,46,46,-0.651206,0.654504,0.384129
47547.461,36086.371,2013.915,0.045,40,35,36,-0.558960,0.606243,0.565715
47547.816,36084.746,2015.479,0.011,30,27,27,-0.473149,0.417867,0.775575
47548.691,36080.250,2019.017,-0.442,41,33,35,-0.409659,0.801647,0.435363
47552.254,36074.164,2023.826,-0.588,26,20,22,-0.824432,0.017893,0.565679
47551.305,36075.543,2023.296,-0.723,30,27,28,-0.679151,-0.186343,0.709951
47551.988,36073.148,2023.521,-0.447,25,19,21,-0.884861,0.217153,0.412147
47552.000,36072.145,2024.854,-0.183,36,30,32,-0.741434,0.450805,0.497042
47556.707,36062.824,2044.232,0.090,34,30,31,-0.034879,0.810590,0.584574
47557.809,36062.398,2044.884,0.095,33,29,31,-0.148017,0.799892,0.581604
47557.328,36059.359,2049.431,0.089,65,59,60,-0.154023,0.575716,0.803012
47618.496,35883.570,2056.637,-0.118,70,60,57,-0.017652,-0.208291,0.977908
47617.836,35884.191,2056.807,-0.126,76,65,62,0.008281,-0.228306,0.973554
47545.906,36087.215,2010.044,-0.335,58,50,51,-0.603665,0.590138,0.536028
47547.750,36087.168,2013.385,0.046,44,40,40,-0.629050,0.625695,0.461304
47548.035,36082.457,2016.325,-0.534,24,18,19,-0.332981,0.326954,0.884434
47548.609,36081.867,2016.702,-0.727,25,20,22,-0.422098,0.412468,0.807282
47548.797,36080.180,2019.566,-0.438,38,31,32,-0.413480,0.786423,0.458882
47548.969,36078.691,2021.437,-0.538,57,48,50,-0.525391,0.426572,0.736207
47550.191,36079.059,2021.786,-0.691,37,32,33,-0.333459,0.623000,0.707585
47551.320,36077.734,2023.304,-0.708,46,39,41,-0.517923,0.359803,0.776078
47551.324,36077.199,2023.532,-0.648,52,45,46,-0.573004,0.220861,0.789232
47551.625,36074.109,2022.865,-0.588,24,19,22,-0.838315,-0.108590,0.534263
47552.172,36071.957,2025.310,-0.264,39,33,35,-0.701150,0.467988,0.537937
47552.527,36071.121,2026.108,-0.091,49,43,44,-0.590593,0.453401,0.667554
47552.656,36070.043,2026.950,0.067,24,20,22,-0.541117,0.554603,0.632146
47553.754,36068.914,2032.571,0.517,46,40,42,-0.511248,0.790110,0.338161
47554.305,36066.070,2036.167,0.624,40,36,37,-0.291453,0.759690,0.581314
47555.434,36064.859,2040.688,0.269,24,21,21,-0.263601,0.878168,0.399167
47557.453,36061.262,2046.528,0.031,47,41,43,-0.075700,0.824129,0.561321
47618.379,35883.977,2056.689,-0.118,71,60,57,-0.010571,-0.217291,0.976049
47617.652,35883.117,2056.528,-0.139,73,63,59,0.003582,-0.249551,0.968355
47543.180,36091.719,2001.160,-0.964,53,46,47,-0.526150,0.802576,0.281137
47551.152,36070.605,2017.171,-0.318,13,10,12,-0.863996,0.285960,0.414412
47551.184,36070.941,2017.275,-0.318,13,11,13,-0.912429,0.141996,0.383811
47551.266,36071.230,2017.861,-0.284,14,12,14,-0.970718,-0.057972,0.233120
47551.633,36070.531,2018.915,-0.336,12,10,12,0.964429,-0.238210,0.114598
47551.254,36070.707,2019.975,-0.390,13,11,14,0.949691,-0.221459,0.221459
47551.602,36070.188,2018.275,-0.281,78,72,77,-0.861941,0.451349,0.230958
47551.609,36070.047,2018.936,-0.336,39,34,38,0.874569,-0.484064,0.028474
47555.430,36065.461,2038.788,0.387,31,26,28,-0.421345,0.874179,0.241411
47551.570,36070.469,2017.900,-0.281,42,37,42,-0.906986,0.312097,0.282792
47551.621,36070.676,2018.382,-0.281,12,10,12,-0.986956,0.040402,0.155835
47543.688,36092.520,1999.432,-0.784,49,43,44,-0.496273,0.843212,0.206655
47543.656,36092.180,2000.568,-0.876,51,45,45,-0.521016,0.822253,0.229001
47544.879,36090.965,2005.305,-0.747,97,85,83,-0.553664,0.706629,0.440604
47546.574,36087.074,2011.260,-0.046,53,47,47,-0.639612,0.659445,0.395006
47547.730,36085.484,2014.878,0.004,34,30,31,-0.524375,0.500920,0.688556
47547.113,36083.465,2015.773,-0.198,23,21,22,-0.290799,0.372162,0.881437
47548.219,36081.281,2016.682,-0.044,42,36,36,-0.345873,0.569959,0.745331
47548.773,36081.395,2016.804,-0.727,49,43,44,-0.406839,0.545197,0.732969
47548.281,36080.645,2017.292,-0.270,49,42,42,-0.348727,0.744492,0.569317
47548.688,36079.988,2020.084,-0.438,35,28,30,-0.403232,0.765650,0.501183
47549.789,36078.742,2021.864,-0.553,47,40,41,-0.417495,0.496082,0.761315
47551.348,36076.402,2023.501,-0.692,42,38,38,-0.651117,0.006912,0.758946
47550.883,36074.629,2022.009,-0.446,21,19,21,-0.816015,-0.331160,0.473764
47551.668,36073.461,2022.789,-0.377,23,19,21,-0.901150,0.027953,0.432605
47551.723,36070.801,2025.618,-0.128,32,28,29,-0.647562,0.513004,0.563463
47553.012,36071.023,2026.649,-0.087,44,39,41,-0.564922,0.444939,0.694904
47553.047,36069.039,2028.748,0.285,30,27,29,-0.593096,0.775825,0.215249
47553.340,36069.273,2029.329,0.239,31,27,30,-0.595927,0.786021,0.164446
47553.988,36066.344,2035.719,0.610,50,44,45,-0.307734,0.707304,0.636413
47554.543,36065.441,2037.030,0.533,23,22,23,-0.309482,0.870513,0.382660
47554.539,36065.309,2037.813,0.466,25,22,24,-0.336885,0.897864,0.283458
47617.215,35883.156,2056.644,-0.172,75,65,60,0.008426,-0.256380,0.966539
47556.621,36061.566,2046.059,0.020,44,39,41,-0.087805,0.821908,0.562813
47557.258,36060.883,2047.341,0.038,45,40,42,-0.087602,0.828631,0.552899
47557.699,36060.305,2048.040,0.092,46,42,43,-0.058321,0.800852,0.596016
47551.352,36074.680,2022.848,-0.588,27,23,25,-0.792882,-0.258038,0.552046
47544.453,36090.984,2004.609,-0.801,76,71,68,-0.585759,0.695278,0.416503
47543.965,36090.438,2004.882,-0.849,71,66,65,-0.609442,0.639663,0.468414
47544.887,36089.566,2007.123,-0.631,89,79,81,-0.619301,0.558552,0.551802
47545.164,36089.309,2007.662,-0.585,76,68,70,-0.599318,0.541918,0.589188
47545.676,36087.887,2009.107,-0.317,63,56,55,-0.573681,0.556759,0.600758
47545.453,36086.527,2010.509,-0.357,46,40,41,-0.584411,0.668137,0.460496
47546.297,36085.938,2013.167,0.100,35,31,32,-0.569787,0.696037,0.436892
47546.961,36084.109,2015.477,-0.095,25,22,22,-0.333445,0.404786,0.851447
47548.066,36080.195,2018.467,-0.287,52,43,43,-0.431561,0.790386,0.434793
47548.980,36079.223,2020.949,-0.474,40,33,35,-0.438522,0.618599,0.651947
47550.539,36077.371,2022.777,-0.633,50,43,44,-0.567184,0.190075,0.801357
47550.523,36076.809,2022.859,-0.658,45,40,41,-0.582732,0.034936,0.811913
47550.461,36076.348,2022.731,-0.782,30,26,28,-0.645208,-0.117176,0.754968
47550.203,36074.371,2020.373,-0.626,20,19,20,-0.801188,-0.478154,0.359815
47550.852,36073.555,2020.823,-0.605,18,16,18,-0.906061,-0.262011,0.332271
47551.352,36073.625,2022.092,-0.321,23,20,22,-0.921022,-0.125657,0.368685
47550.781,36075.293,2022.560,-0.673,28,26,28,-0.710298,-0.301192,0.636208
47551.426,36073.047,2022.358,-0.354,29,25,27,-0.961735,0.098870,0.255521
47555.188,36064.164,2042.016,0.252,28,24,26,-0.178046,0.896019,0.406755
47556.898,36062.422,2044.792,0.055,32,27,29,-0.058102,0.814841,0.576766
47556.445,36059.676,2048.793,0.057,54,48,48,-0.247300,0.637939,0.729298
47550.801,36074.121,2021.162,-0.493,20,18,20,-0.848746,-0.384661,0.362858
47551.160,36074.031,2021.852,-0.446,20,18,20,-0.869789,-0.255642,0.422037
47543.926,36091.328,2003.418,-0.881,68,63,60,-0.554730,0.725923,0.406583
47550.918,36071.602,2017.338,-0.278,13,12,15,-0.911428,-0.223885,0.345216
47551.168,36071.547,2019.390,-0.370,14,13,14,0.993998,0.075082,0.079565
47551.266,36071.078,2019.744,-0.336,13,11,13,0.985744,-0.067130,0.154280
47551.121,36070.211,2017.430,-0.318,27,22,26,-0.838346,0.394793,0.375919
47551.445,36069.855,2018.547,-0.415,45,39,45,-0.815721,0.566758,0.115695
47551.332,36069.789,2019.297,-0.436,33,27,32,0.853028,-0.514095,0.089717
47551.293,36069.609,2018.978,-0.402,39,32,38,0.818777,-0.573832,0.017889
47551.172,36070.270,2019.989,-0.377,20,16,20,0.932253,-0.272201,0.238352
47544.578,36090.512,2005.732,-0.761,73,67,67,-0.607628,0.627826,0.486439
47544.668,36090.211,2006.314,-0.727,78,70,71,-0.607167,0.620622,0.496161
47544.766,36086.707,2009.502,-0.616,59,51,50,-0.517576,0.645705,0.561409
47546.211,36086.262,2012.360,0.037,38,34,34,-0.609756,0.689074,0.391632
47547.047,36085.395,2014.490,0.022,35,31,32,-0.475334,0.592907,0.650015
47547.988,36081.813,2016.502,-0.717,30,24,25,-0.318759,0.430713,0.844322
47548.648,36079.578,2020.375,-0.393,34,27,29,-0.480396,0.687954,0.544003
47550.133,36074.934,2021.152,-0.536,20,17,19,-0.731846,-0.513779,0.447698
47550.406,36075.863,2022.506,-0.782,27,24,26,-0.631114,-0.271840,0.726497
47550.504,36073.914,2020.315,-0.690,19,17,19,-0.844878,-0.424773,0.325192
47550.684,36073.090,2019.989,-0.446,18,17,18,-0.916785,-0.316183,0.243995
47551.078,36073.176,2021.331,-0.476,26,23,26,-0.953439,-0.078914,0.291077
47551.480,36072.598,2022.969,-0.310,37,31,34,-0.923062,0.241857,0.299101
47552.410,36070.480,2026.509,-0.076,38,32,35,-0.578349,0.481119,0.658815
47552.668,36069.586,2027.322,0.067,24,21,22,-0.535312,0.633255,0.558953
47553.258,36068.668,2032.178,0.509,41,37,40,-0.528099,0.794527,0.299732
47554.371,36068.039,2034.400,0.510,52,45,46,-0.402997,0.668345,0.625226
47554.906,36064.840,2040.204,0.293,25,22,23,-0.296973,0.893903,0.335773
47554.133,36064.203,2041.310,0.259,34,28,30,-0.204751,0.927734,0.312069
47616.879,35882.879,2056.595,-0.174,74,63,60,0.015944,-0.278410,0.960330
47617.188,35883.895,2056.788,-0.138,76,64,60,0.022974,-0.247873,0.968520
47555.219,36063.824,2042.788,0.227,31,28,29,-0.084256,0.896434,0.435095
47555.742,36061.984,2045.577,-0.007,37,32,33,-0.079330,0.786087,0.613004
47556.246,36060.777,2047.511,0.042,50,44,45,-0.231430,0.790591,0.566927
47556.375,36060.105,2048.205,0.049,50,44,45,-0.251259,0.731655,0.633680
47544.234,36088.945,2006.876,-0.828,53,45,46,-0.636466,0.555430,0.535172
47545.359,36084.191,2014.893,-0.245,32,27,28,-0.365476,0.621145,0.693257
47546.949,36082.535,2016.003,-0.585,24,20,21,-0.222992,0.332329,0.916423
47547.418,36081.305,2016.604,-0.057,27,22,23,-0.241401,0.568459,0.786498
47547.598,36080.313,2018.040,-0.120,52,43,42,-0.396431,0.765128,0.507367
47549.422,36077.313,2022.081,-0.653,49,43,44,-0.603277,0.091582,0.792256
47550.145,36075.461,2021.879,-0.539,23,20,22,-0.669701,-0.455931,0.586197
47550.367,36073.348,2019.269,-0.661,19,18,20,-0.871786,-0.407844,0.271391
47551.055,36071.223,2020.784,-0.423,18,17,19,0.986571,-0.086458,0.138570
47550.973,36071.754,2022.811,-0.332,46,42,44,-0.919879,0.383396,0.082640
47551.035,36070.340,2025.225,-0.212,22,20,22,-0.618773,0.605284,0.500751
47552.020,36069.047,2027.345,0.238,24,22,24,-0.492992,0.700216,0.516388
47553.691,36069.156,2031.712,0.454,45,40,42,-0.553880,0.789240,0.265172
47552.488,36068.020,2032.992,0.617,40,35,38,-0.466794,0.775821,0.424506
47553.316,36068.508,2032.971,0.554,50,43,45,-0.510390,0.761509,0.399507
47553.375,36064.875,2037.464,0.390,27,24,26,-0.313070,0.891275,0.328049
47554.398,36064.449,2040.766,0.283,29,24,25,-0.251789,0.909643,0.330382
47615.742,35884.094,2056.810,-0.195,72,59,56,0.008397,-0.250704,0.968028
47555.398,36059.008,2048.719,0.079,67,60,61,-0.393312,0.564460,0.725734
47543.707,36090.961,2003.870,-0.914,59,54,53,-0.566221,0.699059,0.436704
47550.488,36072.715,2018.406,-0.278,20,18,20,-0.865260,-0.464539,0.188487
47550.793,36072.504,2019.330,-0.257,19,18,20,-0.943621,-0.310981,0.113448
47550.930,36072.344,2020.143,-0.393,17,16,19,-0.977777,-0.145732,0.150715
47550.891,36072.871,2020.627,-0.440,17,16,18,-0.962792,-0.168980,0.210897
47549.895,36070.770,2014.739,-0.439,17,16,18,-0.811545,0.219378,0.541542
47549.719,36071.059,2014.565,-0.294,19,16,19,-0.795537,0.037883,0.604720
47549.867,36070.480,2014.765,-0.439,26,24,27,-0.815497,0.225759,0.532914
47550.422,36071.180,2015.926,-0.428,15,13,15,-0.864213,0.197832,0.462599
47550.117,36070.246,2015.566,-0.436,13,12,15,-0.784429,0.477127,0.396258
47550.516,36070.250,2016.434,-0.433,14,12,17,-0.779239,0.466893,0.418088
47550.367,36069.859,2016.878,-0.442,23,20,25,-0.696498,0.604290,0.386943
47550.918,36069.824,2017.804,-0.430,28,24,30,-0.771107,0.574768,0.273925
47550.656,36069.469,2018.301,-0.374,25,22,27,-0.697996,0.701011,0.146233
47550.906,36069.523,2019.541,-0.342,34,25,32,0.741480,-0.646693,0.178873
47550.797,36070.023,2020.435,-0.311,24,21,25,0.798651,-0.505334,0.326793
47550.547,36070.742,2016.112,-0.433,13,11,14,-0.845600,0.292173,0.446761
47551.020,36071.855,2018.683,-0.304,15,14,17,-0.953518,-0.289299,0.084325
47543.254,36092.535,1998.252,-0.528,48,42,43,-0.500443,0.843089,0.196871
47543.035,36092.633,1997.110,-0.280,48,42,43,-0.519989,0.841116,0.148779
47543.711,36093.047,1997.046,-0.481,49,42,44,-0.507933,0.845568,0.164375
47544.215,36089.785,2006.235,-0.777,60,53,54,-0.635308,0.588123,0.500495
47544.656,36088.621,2007.688,-0.683,58,50,52,-0.625190,0.520711,0.581376
47546.188,36085.246,2014.089,0.058,36,31,32,-0.467414,0.671803,0.574634
47547.305,36081.945,2016.308,-0.445,21,17,18,-0.248660,0.420462,0.872571
47547.293,36080.586,2017.258,-0.041,50,42,43,-0.298008,0.681391,0.668504
47547.582,36080.434,2017.613,-0.120,51,43,42,-0.346066,0.742499,0.573527
47548.480,36078.855,2020.833,-0.506,54,46,48,-0.586656,0.449602,0.673568
47549.492,36075.500,2021.013,-0.580,20,17,19,-0.684399,-0.557225,0.470211
47549.551,36075.902,2021.658,-0.894,24,21,23,-0.644125,-0.427752,0.634138
47549.199,36076.738,2021.975,-0.653,35,30,31,-0.630275,-0.168580,0.757849
47549.684,36076.230,2022.112,-0.915,29,26,27,-0.651249,-0.220206,0.726212
47549.746,36074.129,2019.095,-0.585,26,23,26,-0.783643,-0.527236,0.328521
47551.039,36072.176,2022.002,-0.507,40,37,38,-0.969644,0.188792,0.155400
47550.848,36071.016,2024.085,-0.221,31,27,31,-0.753444,0.583879,0.302337
47551.840,36069.668,2026.536,-0.042,19,17,20,-0.517434,0.608449,0.601707
47616.238,35883.051,2056.446,-0.224,74,62,59,0.023449,-0.282623,0.958944
47554.004,36064.730,2040.078,0.296,30,26,28,-0.300151,0.909238,0.288438
47555.012,36063.410,2043.726,0.156,38,32,34,-0.009497,0.842504,0.538606
47555.047,36062.977,2044.167,0.156,39,34,36,-0.012378,0.807304,0.590006
47556.027,36061.375,2046.224,0.002,48,42,44,-0.132552,0.781906,0.609142
47555.781,36059.906,2048.246,0.062,52,46,47,-0.377408,0.680652,0.627914
47556.648,36059.371,2049.253,0.064,71,63,65,-0.228812,0.586818,0.776717
47550.973,36072.250,2020.914,-0.393,21,19,22,-0.996184,-0.011745,0.086485
47551.051,36071.680,2020.497,-0.298,18,16,18,0.995772,0.062717,0.067118
47543.500,36089.762,2005.045,-0.967,40,32,35,-0.617930,0.601093,0.506804
47544.184,36090.039,2005.896,-0.817,58,51,52,-0.632031,0.591581,0.500569
47543.813,36088.145,2007.093,-0.895,48,39,39,-0.589592,0.582834,0.559183
47546.078,36083.242,2015.641,-0.327,24,22,23,-0.262323,0.426085,0.865817
47546.328,36082.777,2015.803,-0.460,19,17,19,-0.208364,0.352063,0.912489
47548.145,36079.875,2019.177,-0.302,45,37,38,-0.453077,0.763852,0.459620
47549.070,36075.387,2020.095,-0.716,21,19,19,-0.662368,-0.629166,0.406717
47551.016,36070.816,2020.844,-0.411,19,17,20,0.966881,-0.175207,0.185589
47550.938,36071.648,2021.496,-0.458,26,25,26,0.987711,-0.156191,0.005618
47550.762,36071.230,2022.118,-0.259,43,40,42,0.947226,-0.315742,0.055416
47551.590,36068.039,2029.022,0.368,28,26,28,-0.507511,0.843867,0.174131
47551.168,36067.688,2031.301,0.579,33,29,32,-0.416146,0.886700,0.201456
47554.066,36065.543,2036.654,0.511,30,28,29,-0.286796,0.841786,0.457324
47615.078,35884.375,2057.040,-0.218,74,61,57,0.001191,-0.248977,0.968509
47615.910,35883.516,2056.512,-0.214,69,57,54,0.015729,-0.255296,0.966735
47542.461,36091.094,2001.606,-0.971,51,44,45,-0.558553,0.769811,0.308885
47549.195,36074.883,2019.363,-0.432,21,19,22,-0.692669,-0.633995,0.343890
47549.434,36071.129,2014.198,-0.273,16,14,17,-0.736477,0.067739,0.673062
47549.359,36070.777,2014.143,-0.273,16,15,18,-0.758601,0.095008,0.644592
47549.492,36070.484,2014.364,-0.374,22,20,23,-0.677454,0.399184,0.617825
47549.703,36071.402,2014.771,-0.145,14,12,16,-0.810840,0.015143,0.585072
47550.629,36071.617,2016.626,-0.215,16,14,16,-0.901813,-0.174034,0.395532
47550.598,36071.863,2016.880,-0.278,16,13,16,-0.875359,-0.270620,0.400639
47550.000,36073.508,2018.448,-0.585,24,21,24,-0.819539,-0.515891,0.249425
47549.930,36073.234,2017.869,-0.169,17,15,18,-0.768465,-0.575160,0.280450
47549.844,36069.820,2015.833,-0.436,16,15,18,-0.748377,0.535491,0.391383
47550.309,36069.582,2017.592,-0.430,25,22,28,-0.628640,0.697218,0.344527
47550.613,36069.305,2019.209,-0.342,25,22,27,0.649637,-0.759554,0.032411
47550.723,36070.328,2020.994,-0.362,26,23,26,0.877020,-0.390961,0.279258
47550.352,36069.430,2020.244,-0.274,23,20,25,0.699659,-0.671230,0.244802
47543.504,36089.336,2005.537,-0.937,49,40,41,-0.609990,0.593092,0.525504
47544.199,36087.914,2007.817,-0.762,50,40,41,-0.590787,0.577244,0.563702
47544.672,36087.125,2008.901,-0.610,49,42,42,-0.525420,0.616650,0.586240
47544.918,36084.461,2014.078,-0.094,36,31,32,-0.466525,0.687246,0.556820
47548.145,36079.469,2020.034,-0.420,53,46,46,-0.544779,0.625737,0.558272
47548.879,36078.262,2021.546,-0.577,59,50,52,-0.582028,0.309453,0.751986
47548.867,36076.141,2021.133,-0.905,24,21,22,-0.678527,-0.435124,0.591835
47549.066,36076.410,2021.757,-0.895,28,24,25,-0.660567,-0.223312,0.716786
47550.719,36070.734,2021.584,-0.363,29,27,29,0.918449,-0.365978,0.150037
47550.961,36070.668,2024.746,-0.212,29,25,28,-0.683338,0.607227,0.405370
47551.547,36069.223,2026.711,0.130,19,17,20,-0.479050,0.643776,0.596711
47552.480,36068.652,2029.233,0.369,28,26,28,-0.588080,0.792630,0.160932
47552.070,36068.164,2031.049,0.511,32,28,31,-0.506498,0.845153,0.170813
47551.543,36067.734,2031.767,0.590,34,31,34,-0.446881,0.852299,0.271814
47551.965,36065.699,2035.279,0.404,35,30,31,-0.258418,0.787783,0.559122
47553.313,36065.000,2037.074,0.346,28,26,27,-0.292900,0.875664,0.383957
47615.887,35882.387,2056.230,-0.227,70,60,56,0.021071,-0.293759,0.955647
47553.289,36064.551,2039.574,0.226,34,29,32,-0.302913,0.925805,0.226118
47554.273,36063.391,2043.663,0.115,38,32,34,-0.045636,0.858788,0.510294
47555.602,36060.906,2046.549,0.023,47,39,41,-0.243973,0.722475,0.646922
47555.648,36060.750,2046.818,0.023,47,40,41,-0.268808,0.730075,0.628278
47554.414,36059.625,2047.336,0.073,74,65,64,-0.392142,0.666807,0.633714
47554.684,36059.246,2048.021,0.115,62,55,55,-0.416825,0.652638,0.632710
47543.172,36090.258,2004.077,-0.984,39,35,35,-0.581852,0.655632,0.481244
47542.965,36088.336,2005.924,-0.978,70,60,61,-0.542128,0.633328,0.552262
47543.242,36087.691,2006.928,-0.961,76,64,67,-0.499322,0.664081,0.556483
47544.762,36084.957,2012.574,-0.459,34,30,31,-0.608113,0.727477,0.317767
47545.328,36085.066,2013.365,-0.088,35,30,31,-0.550033,0.737209,0.392412
47546.930,36080.199,2017.737,-0.166,50,42,42,-0.362226,0.706422,0.608080
47548.773,36076.750,2021.595,-0.653,38,33,34,-0.677770,-0.196075,0.708648
47548.289,36076.289,2020.455,-0.971,23,21,22,-0.721155,-0.417511,0.552830
47550.703,36071.090,2023.125,-0.268,41,38,41,-0.895011,0.438514,0.081616
47551.031,36069.469,2026.194,0.032,21,18,20,-0.513818,0.651960,0.557619
47550.973,36068.090,2027.815,0.307,26,23,25,-0.389569,0.783986,0.483324
47551.320,36067.887,2028.406,0.347,29,26,28,-0.466194,0.834160,0.294685
47552.383,36067.277,2033.781,0.598,38,32,35,-0.411396,0.755593,0.509738
47552.766,36063.871,2041.106,0.214,36,31,31,-0.187848,0.957891,0.217158
47554.293,36063.133,2043.994,0.115,33,28,30,-0.023451,0.829052,0.558679
47555.086,36062.301,2045.047,0.008,34,30,31,-0.070895,0.736439,0.672779
47555.320,36061.102,2046.266,0.010,46,39,41,-0.234378,0.690550,0.684258
47615.648,35882.828,2056.386,-0.236,70,59,55,0.023410,-0.279687,0.959806
47555.492,36058.516,2049.026,0.067,62,56,55,-0.358655,0.540417,0.761128
47548.238,36074.891,2017.444,-0.494,32,29,32,-0.669737,-0.663219,0.334054
47549.488,36071.805,2014.825,-0.168,17,15,18,-0.800432,-0.186818,0.569568
47549.363,36069.547,2015.414,-0.421,17,15,20,-0.586448,0.705390,0.398124
47548.176,36073.816,2015.469,-0.333,16,15,17,-0.736147,-0.566393,0.370522
47549.324,36073.672,2017.357,-0.494,21,17,20,-0.711758,-0.610776,0.346921
47550.219,36072.020,2016.373,-0.225,13,12,15,-0.853687,-0.339306,0.395082
47549.465,36069.473,2016.125,-0.336,17,15,19,-0.567084,0.751265,0.337665
47549.625,36069.000,2018.566,-0.250,22,20,24,-0.452628,0.874496,0.174313
47550.273,36069.215,2018.667,-0.250,23,20,25,-0.579103,0.806028,0.122304
47549.977,36069.063,2019.896,-0.104,23,21,26,0.602660,-0.793430,0.085268
47541.574,36091.887,1995.392,-0.136,46,40,42,-0.563742,0.823713,0.060754
47541.750,36091.910,1996.415,-0.143,47,41,42,-0.546133,0.832817,0.090305
47542.395,36092.230,1997.175,-0.184,46,40,41,-0.543135,0.827282,0.143553
47542.031,36091.809,1998.271,-0.188,46,40,41,-0.525943,0.831619,0.178311
47542.762,36091.961,1999.410,-0.520,47,41,42,-0.519410,0.827096,0.214771
47542.148,36091.461,1999.758,-0.442,41,37,38,-0.538373,0.809874,0.232935
47543.406,36088.762,2005.859,-0.979,52,42,43,-0.596799,0.600180,0.532555
47543.852,36087.145,2008.296,-0.854,98,90,91,-0.489456,0.650926,0.580283
47543.750,36086.461,2008.958,-0.846,60,53,53,-0.478401,0.663048,0.575760
47544.836,36085.387,2011.678,-0.307,37,32,32,-0.619642,0.707465,0.339908
47545.602,36083.480,2015.440,-0.327,24,21,23,-0.269105,0.505545,0.819760
47544.824,36082.887,2015.579,-0.138,23,18,20,-0.281451,0.483599,0.828805
47547.477,36079.090,2019.646,-0.321,55,47,47,-0.667853,0.456952,0.587510
47547.633,36077.559,2020.470,-0.750,50,42,42,-0.780077,0.055618,0.623206
47548.270,36076.609,2020.919,-0.997,33,29,30,-0.728179,-0.216738,0.650215
47550.547,36070.598,2024.076,-0.290,29,25,29,-0.708452,0.651139,0.272237
47550.613,36069.707,2025.609,-0.006,21,18,21,-0.552571,0.660062,0.508903
47615.355,35882.289,2056.258,-0.250,65,54,49,0.028612,-0.289854,0.956643
47553.613,36063.965,2041.229,0.229,46,41,42,-0.182400,0.942172,0.281143
47553.371,36063.867,2041.840,0.229,36,32,33,-0.134596,0.950168,0.281186
47554.461,36060.344,2046.391,0.039,80,72,74,-0.318205,0.621872,0.715557
47542.359,36089.895,2003.633,-1.014,33,27,29,-0.551953,0.692025,0.465241
47543.430,36087.453,2007.532,-0.939,66,56,59,-0.487070,0.677880,0.550673
47542.797,36086.711,2008.004,-1.025,77,66,66,-0.433374,0.695723,0.572850
47544.398,36083.863,2014.385,-0.454,32,27,28,-0.538831,0.666405,0.515331
47547.113,36079.563,2018.505,-0.247,39,32,32,-0.547885,0.632175,0.547885
47546.813,36078.641,2019.109,-0.472,38,31,31,-0.708007,0.258177,0.657321
47548.078,36078.258,2020.817,-0.556,57,49,50,-0.701523,0.251788,0.666684
47547.629,36077.340,2020.422,-0.750,48,41,42,-0.784689,0.032286,0.619048
47549.863,36069.980,2022.877,-0.271,28,24,30,0.772811,-0.634562,0.009677
47549.953,36070.094,2023.567,-0.343,27,23,28,-0.754897,0.649767,0.089069
47550.199,36070.094,2024.378,-0.211,29,24,29,-0.707712,0.650200,0.276375
47549.496,36069.293,2025.043,0.082,27,23,27,-0.584175,0.769978,0.256659
47549.512,36069.074,2025.579,0.186,22,19,22,-0.501167,0.776890,0.381147
47551.828,36067.371,2033.122,0.626,37,33,36,-0.417211,0.800594,0.430098
47551.156,36065.797,2034.956,0.363,31,27,29,-0.209861,0.804214,0.556056
47552.961,36064.313,2040.199,0.303,37,31,33,-0.260033,0.938621,0.226659
47614.406,35882.938,2056.548,-0.268,68,57,54,0.018316,-0.267410,0.963409
47554.078,36061.129,2045.877,0.020,63,55,57,-0.221822,0.584804,0.780256
47542.148,36090.328,2002.761,-1.040,30,27,27,-0.563832,0.715951,0.411713
47543.066,36085.129,2009.876,-1.311,53,44,45,-0.514754,0.626144,0.585638
47543.598,36085.129,2010.335,-1.214,49,42,43,-0.545183,0.639704,0.541807
47544.164,36085.117,2011.039,-0.820,40,33,34,-0.576511,0.680116,0.452854
47547.762,36074.730,2016.212,-0.239,26,22,24,-0.680436,-0.657701,0.323167
47547.828,36075.594,2018.093,-1.144,22,17,18,-0.659932,-0.669709,0.340558
47548.754,36072.113,2014.177,-0.225,14,13,16,-0.698050,-0.307916,0.646462
47548.539,36072.855,2014.732,-0.087,15,13,17,-0.719930,-0.473857,0.507110
47548.152,36071.305,2013.165,-0.334,14,13,15,-0.739608,0.006938,0.673002
47548.785,36071.484,2013.805,-0.225,14,13,14,-0.730270,-0.035313,0.682245
47548.652,36070.973,2013.589,-0.334,14,13,16,-0.697972,0.095512,0.709727
47548.188,36070.656,2013.270,-0.334,15,14,16,-0.655907,0.330395,0.678693
47548.699,36070.102,2013.900,-0.374,22,20,24,-0.609442,0.468414,0.639663
47549.246,36072.625,2015.546,-0.117,16,13,17,-0.733232,-0.508131,0.451856
47550.027,36069.574,2017.124,-0.442,20,17,22,-0.626077,0.710201,0.321936
47549.652,36069.313,2017.790,-0.343,17,15,17,-0.473723,0.848436,0.236100
47549.836,36068.973,2019.284,-0.121,23,21,24,-0.539823,0.841689,0.012238
47550.422,36070.609,2022.262,-0.271,41,38,42,0.868688,-0.482286,0.113058
47549.832,36069.445,2021.531,-0.194,21,18,20,0.715948,-0.672837,0.186301
47542.664,36087.719,2006.487,-0.961,87,74,76,-0.454756,0.704621,0.544707
47543.859,36084.496,2011.715,-1.075,43,37,39,-0.666027,0.659481,0.348559
47544.551,36083.199,2015.258,-0.641,24,20,21,-0.343561,0.533891,0.772610
47547.625,36076.270,2019.183,-1.165,25,21,22,-0.714390,-0.575802,0.397617
47550.168,36067.215,2028.753,0.353,27,24,26,-0.385042,0.897455,0.215214
47550.285,36067.223,2028.994,0.353,26,24,26,-0.402679,0.891752,0.206465
47549.742,36067.070,2030.426,0.464,25,22,24,-0.450724,0.892030,0.033636
47551.121,36066.590,2033.836,0.486,29,26,28,-0.290286,0.817508,0.497409
47550.773,36066.172,2034.416,0.392,29,26,28,-0.230014,0.810453,0.538758
47552.145,36064.801,2036.939,0.302,32,29,32,-0.297098,0.854349,0.426405
47551.844,36064.203,2038.069,0.197,42,38,42,-0.332136,0.901935,0.276042
47551.668,36064.008,2038.656,0.210,34,31,34,-0.371726,0.908505,0.190887
47552.223,36063.301,2043.568,0.082,42,37,38,-0.122956,0.857801,0.499058
47553.023,36063.227,2043.882,0.121,39,33,35,-0.069067,0.844306,0.531391
47614.805,35882.094,2056.225,-0.289,67,56,52,0.051935,-0.287541,0.956359
47543.395,36083.852,2012.178,-0.866,60,49,52,-0.705781,0.641473,0.300640
47544.559,36083.574,2014.903,-0.245,28,22,25,-0.409523,0.595217,0.691381
47546.453,36074.781,2012.789,-0.337,27,23,24,-0.766192,-0.509168,0.392043
47545.027,36082.336,2015.781,-0.138,23,18,21,-0.183859,0.403911,0.896132
47546.078,36081.961,2015.879,-0.122,22,17,18,-0.179544,0.389251,0.903464
47545.531,36079.977,2017.173,-0.231,54,45,45,-0.369796,0.469049,0.802025
47545.824,36079.195,2017.903,-0.417,43,37,37,-0.530022,0.402029,0.746625
47546.344,36078.770,2018.503,-0.405,35,28,28,-0.599696,0.242697,0.762537
47546.574,36078.973,2018.566,-0.405,36,29,29,-0.615682,0.366126,0.697773
47547.570,36076.621,2019.709,-1.020,32,27,28,-0.751479,-0.432470,0.498245
47547.051,36078.211,2019.554,-0.571,52,43,44,-0.751306,0.149057,0.642901
47550.180,36067.676,2028.063,0.322,24,22,24,-0.335198,0.811783,0.478174
47551.168,36067.230,2032.695,0.585,33,30,33,-0.389918,0.861520,0.325189
47551.242,36063.922,2039.785,0.125,30,27,28,-0.352590,0.932700,0.075840
47614.383,35881.754,2056.200,-0.286,66,55,51,0.052769,-0.234394,0.970708
47552.742,36061.934,2045.158,0.022,60,52,54,-0.181815,0.609614,0.771566
47545.941,36075.406,2012.826,-0.337,29,25,26,-0.710893,-0.623448,0.325489
47541.246,36090.020,2001.758,-0.911,49,43,43,-0.582095,0.732103,0.353823
47541.707,36089.566,2003.384,-1.063,39,34,35,-0.523303,0.719334,0.456852
47541.941,36089.379,2003.863,-1.070,43,39,39,-0.528648,0.698750,0.481954
47542.188,36089.063,2004.458,-1.011,44,40,39,-0.511927,0.666345,0.542139
47542.621,36085.359,2009.332,-1.313,70,60,61,-0.449351,0.613055,0.649805
47546.492,36075.113,2013.749,-0.488,25,21,23,-0.758805,-0.569505,0.316035
47547.043,36074.098,2013.403,-0.025,21,18,19,-0.780701,-0.482055,0.397654
47546.969,36074.676,2014.195,-0.339,22,19,21,-0.762464,-0.573846,0.298912
47546.852,36075.730,2016.479,-1.012,23,19,21,-0.647270,-0.695694,0.311529
47548.191,36071.977,2013.411,-0.245,17,15,18,-0.728147,-0.227057,0.646720
47548.129,36072.770,2013.967,-0.204,17,15,18,-0.716963,-0.422230,0.554694
47547.547,36073.844,2014.274,-0.072,20,17,18,-0.759195,-0.531599,0.375533
47547.594,36074.281,2015.031,-0.278,17,15,16,-0.739576,-0.587453,0.328521
47548.141,36070.297,2013.409,-0.360,22,19,22,-0.613798,0.427496,0.663701
47548.031,36069.832,2013.680,-0.331,24,21,25,-0.556701,0.604080,0.570238
47548.828,36069.414,2014.725,-0.403,18,16,20,-0.534725,0.701305,0.471424
47548.344,36068.941,2016.596,-0.007,27,23,27,-0.360865,0.914287,0.183998
47549.055,36068.563,2019.941,-0.147,26,23,27,-0.508889,0.860035,0.037035
47549.406,36069.184,2022.271,-0.206,25,22,25,0.698301,-0.701318,0.143280
47549.043,36069.172,2023.721,-0.179,25,21,24,-0.621235,0.783175,0.026525
47549.422,36069.445,2024.427,-0.213,27,23,27,-0.602407,0.774086,0.194671
47549.344,36068.883,2021.132,-0.040,25,22,25,0.635807,-0.756626,0.152533
47549.008,36068.703,2022.100,-0.156,27,24,27,0.634858,-0.756072,0.159093
47540.598,36091.215,1994.867,-0.164,45,39,40,-0.584336,0.811502,0.004105
47540.609,36091.160,1996.197,-0.136,46,40,41,-0.567764,0.821356,0.054945
47540.855,36090.410,2000.100,-0.544,40,35,36,-0.570894,0.757439,0.316806
47541.078,36087.773,2005.257,-0.956,78,67,68,-0.449097,0.727504,0.518699
47542.055,36087.738,2006.085,-0.988,94,81,81,-0.434866,0.722573,0.537382
47543.059,36084.188,2010.884,-1.235,45,38,39,-0.638526,0.547549,0.540810
47545.695,36075.531,2012.432,-0.874,36,31,33,-0.718364,-0.601080,0.350223
47544.340,36082.574,2015.690,-0.138,26,22,23,-0.297960,0.463319,0.834599
