//X,Y,Z,M3C2 distance,R,G,B,Nx,Ny,Nz
47576.438,36095.703,2034.810,-0.416,20,15,19,-0.431249,0.860973,0.269721
47568.434,36099.348,1998.608,-1.230,19,15,20,-0.552421,0.832127,-0.048949
47577.262,36095.371,2038.206,-0.569,36,29,33,-0.771788,0.610428,0.178105
47579.031,36095.004,2041.550,-0.592,33,27,33,-0.548821,0.599482,0.582595
47567.859,36099.250,1999.676,-1.245,19,13,16,-0.260148,0.842018,-0.472577
47567.355,36100.070,2000.652,-1.249,17,11,16,-0.342741,0.579898,-0.739085
47568.820,36099.668,2008.350,0.503,22,17,22,-0.494836,0.729841,0.471666
47566.598,36101.176,2003.095,-1.236,17,12,17,-0.450224,0.832994,0.321589
47571.922,36097.848,2016.525,0.029,26,20,25,-0.648817,0.740415,0.175562
47574.066,36096.613,2026.127,-0.010,26,21,26,-0.401695,0.877110,0.263284
47573.184,36097.254,2019.778,-0.033,23,18,22,-0.519974,0.814884,0.256107
47573.566,36097.441,2019.834,-0.024,22,17,21,-0.539071,0.770791,0.339534
47573.086,36097.129,2020.135,-0.068,27,21,26,-0.488548,0.849323,0.199929
47572.891,36097.840,2018.377,0.003,27,22,27,-0.693235,0.614196,0.377080
47573.758,36097.316,2023.023,-0.091,21,15,19,-0.486956,0.873302,0.014756
47574.555,36096.699,2026.698,-0.001,21,15,20,-0.293961,0.934824,0.199225
47580.645,36092.594,2043.683,-0.585,91,86,98,-0.274876,0.489185,0.827733
47578.332,36094.684,2040.965,-0.628,32,27,32,-0.677938,0.614951,0.402785
47571.234,36099.082,2011.349,0.127,17,11,13,-0.155248,0.904427,0.397378
47571.559,36098.547,2012.776,0.133,18,11,14,-0.263611,0.931800,0.249514
47571.688,36098.664,2012.416,0.111,18,11,15,-0.199317,0.925907,0.320887
47571.031,36098.508,2012.541,0.133,18,12,16,-0.294665,0.880971,0.370219
47571.754,36098.055,2015.007,0.065,30,24,28,-0.662362,0.732085,0.159149
47573.828,36097.285,2024.138,-0.067,20,15,19,-0.447591,0.866740,0.220053
47573.770,36096.992,2025.063,-0.040,19,15,19,-0.388711,0.807816,0.443099
47574.020,36097.301,2020.800,-0.055,36,32,39,-0.440744,0.893924,0.081517
47573.836,36097.195,2021.362,-0.071,35,31,38,-0.477670,0.877770,-0.036744
47573.781,36097.336,2023.320,-0.108,21,16,19,-0.525788,0.848272,-0.063095
47574.109,36097.430,2023.982,-0.067,20,16,20,-0.117704,0.977562,0.174697
47573.805,36097.445,2023.598,-0.067,21,16,20,-0.490829,0.871255,-0.001330
47582.344,36091.719,2045.043,-0.472,75,61,66,-0.227075,0.339890,0.912640
47577.277,36095.648,2036.993,-0.495,25,20,24,-0.702610,0.693505,0.159339
47577.672,36095.039,2039.451,-0.626,34,26,30,-0.741660,0.551743,0.381472
47580.336,36093.531,2043.155,-0.570,63,56,67,-0.233871,0.378018,0.895771
47579.547,36093.871,2042.609,-0.593,39,33,38,-0.407982,0.512845,0.755341
47566.824,36101.012,2003.627,1.219,16,12,17,-0.439417,0.820140,0.366446
47566.902,36100.918,2004.025,1.219,16,13,19,-0.517999,0.784215,0.341591
47567.504,36100.664,2005.313,1.019,21,18,23,-0.448953,0.748255,0.488421
47567.934,36099.199,1997.174,1.106,18,12,15,-0.642493,0.625804,0.442235
47569.152,36099.828,1998.973,-1.290,19,12,17,-0.492305,0.852238,-0.176992
47568.266,36099.363,1999.461,-1.242,19,14,17,-0.496921,0.845217,-0.196667
47568.371,36099.305,1997.822,-1.222,20,14,18,-0.666108,0.715795,0.209614
47567.543,36100.926,2001.203,-1.233,18,13,17,-0.374026,0.550422,-0.746418
47572.484,36098.094,2017.505,-0.014,29,24,29,-0.730063,0.538895,0.420239
47572.523,36098.203,2017.383,-0.014,27,21,27,-0.537903,0.818283,0.202666
47569.137,36100.113,2007.680,0.559,24,19,24,-0.489557,0.868298,0.079956
47567.605,36100.859,2005.034,1.058,21,20,26,-0.515498,0.727664,0.452511
47574.184,36097.320,2024.505,-0.067,19,13,18,-0.218130,0.945228,0.242823
47574.887,36096.805,2026.523,-0.001,20,12,17,-0.373164,0.890538,0.260174
47569.945,36099.715,2009.237,0.359,22,16,20,-0.108873,0.825986,0.553077
47572.691,36097.633,2018.198,0.003,35,30,37,-0.741239,0.554702,0.377983
47573.191,36097.867,2018.876,-0.004,25,19,24,-0.537190,0.749453,0.386972
47575.672,36096.270,2030.003,-0.077,21,15,19,-0.533932,0.845279,0.020483
47575.359,36096.813,2027.110,0.006,18,12,16,-0.303631,0.899044,0.315480
47576.348,36096.297,2033.174,-0.278,21,15,20,-0.460339,0.862199,0.211426
47577.848,36096.121,2037.042,-0.425,26,20,23,-0.706137,0.694092,0.140023
47572.215,36098.742,2013.061,0.084,19,11,15,-0.368035,0.923508,0.108085
47572.023,36098.539,2013.634,0.102,19,13,17,-0.535634,0.786763,0.306758
47566.605,36101.133,2002.350,-1.236,16,11,16,-0.591111,0.733626,-0.335233
47569.750,36100.535,2006.799,0.651,25,20,23,-0.532436,0.844312,-0.060408
47568.980,36100.148,2006.736,0.780,25,19,25,-0.144428,0.893738,0.424704
47574.281,36097.566,2021.819,-0.037,23,17,21,-0.390174,0.915883,-0.094463
47574.301,36097.563,2022.676,-0.064,23,17,21,-0.193426,0.976984,0.089937
47573.965,36097.492,2023.516,-0.067,21,16,21,-0.160143,0.986983,-0.014765
47574.875,36097.438,2024.166,-0.021,18,12,15,-0.080212,0.989276,0.122061
47567.547,36101.203,2004.488,1.058,19,14,20,-0.474890,0.771901,0.422669
47570.543,36099.574,2009.440,0.267,19,14,20,-0.051692,0.839645,0.540670
47569.379,36100.230,2008.036,0.492,28,23,27,-0.541904,0.812088,0.216455
47572.969,36098.152,2018.088,-0.027,27,22,27,-0.571862,0.669129,0.474595
47576.449,36096.902,2029.946,-0.089,24,19,24,-0.701495,0.712608,0.009724
47576.500,36096.930,2030.526,-0.119,25,21,26,-0.655928,0.754247,0.029496
47577.270,36096.531,2033.859,-0.294,22,17,21,-0.568136,0.758051,0.320281
47581.965,36092.809,2044.027,-0.493,67,56,60,-0.419535,0.191495,0.887310
47583.277,36092.484,2044.996,-0.427,53,45,52,-0.170345,0.311606,0.934818
47577.934,36096.539,2036.321,-0.362,30,23,27,-0.685073,0.649273,0.330332
47577.238,36096.160,2034.616,-0.368,25,19,23,-0.682726,0.685894,0.251864
47578.168,36096.324,2037.876,-0.477,32,26,28,-0.748785,0.659335,0.067809
47578.691,36095.176,2040.659,-0.594,33,29,36,-0.656187,0.669278,0.348548
47577.527,36095.621,2038.230,-0.569,33,28,31,-0.768112,0.628994,0.119879
47580.875,36093.500,2043.323,-0.541,80,75,85,-0.372823,0.294334,0.879983
47579.883,36095.188,2042.096,-0.571,38,30,34,-0.499732,0.509761,0.700294
47579.137,36095.359,2041.224,-0.592,36,32,39,-0.680796,0.648144,0.341214
47568.656,36099.566,1998.014,-1.218,21,16,21,-0.611504,0.774572,0.161558
47569.000,36099.867,1997.948,-1.241,21,16,20,-0.527267,0.796442,0.296093
47568.809,36100.195,2000.024,-1.253,19,14,17,-0.441778,0.688506,-0.575145
47571.723,36099.359,2010.738,0.132,16,10,14,-0.045477,0.985342,0.164418
47569.684,36099.996,1998.286,-1.290,20,15,18,-0.207820,0.959678,0.189288
47569.633,36099.992,1998.642,-1.290,20,13,17,-0.359177,0.915688,-0.180298
47572.500,36098.582,2014.952,0.038,20,13,17,-0.535537,0.843918,0.031664
47569.668,36100.570,2006.057,0.877,21,16,20,-0.326379,0.868812,0.372348
47569.590,36100.641,2005.918,0.877,21,17,20,-0.029567,0.711009,0.702561
47575.195,36097.266,2025.551,0.010,17,11,14,-0.294354,0.925722,0.237474
47574.836,36097.285,2025.167,-0.021,18,11,15,-0.245235,0.940762,0.234151
47573.512,36097.938,2019.042,-0.018,22,16,21,-0.333222,0.864536,0.376219
47573.410,36098.281,2017.954,-0.027,22,16,21,-0.233247,0.942648,0.238767
47576.293,36096.777,2028.370,-0.000,29,25,34,-0.507777,0.850198,0.139017
47576.047,36096.531,2029.160,-0.052,31,27,34,-0.507266,0.855024,0.107776
47583.785,36092.875,2044.885,-0.427,38,34,41,0.003526,0.224515,0.974464
47577.680,36095.844,2037.829,-0.476,31,26,30,-0.715853,0.695769,0.058818
47579.230,36095.594,2040.869,-0.569,37,35,43,-0.774756,0.533148,0.339862
47569.559,36100.461,2007.450,0.569,27,21,25,-0.604596,0.796531,-0.001371
47569.625,36100.195,2008.421,0.439,26,20,25,-0.195158,0.859588,0.472252
47569.875,36100.598,2007.591,0.492,25,19,23,-0.286244,0.905706,0.312667
47571.281,36099.492,2009.882,0.206,18,12,17,-0.097300,0.969211,0.226191
47570.246,36100.125,1997.999,-1.318,21,15,18,-0.113769,0.955920,0.270691
47568.992,36100.445,1997.117,1.172,20,16,20,-0.495288,0.673256,0.549014
47573.320,36098.785,2015.592,0.008,16,11,15,-0.190862,0.978625,0.076588
47572.699,36098.625,2015.649,0.026,18,14,18,-0.249815,0.961723,0.112611
47575.508,36097.988,2022.069,-0.015,28,22,27,-0.448799,0.869268,0.207252
47575.125,36097.875,2021.764,-0.040,24,18,22,-0.353311,0.929980,0.101526
47569.336,36100.980,2005.660,0.877,21,18,25,-0.132864,0.753893,0.643422
47570.531,36100.004,2008.913,0.267,18,11,15,-0.141750,0.786337,0.601316
47570.109,36100.148,2008.516,0.382,22,16,21,-0.172106,0.827604,0.534276
47576.395,36096.816,2029.017,-0.044,24,21,28,-0.596689,0.802443,-0.006858
47581.566,36093.074,2043.809,-0.526,69,59,64,-0.388069,0.282369,0.877308
47577.602,36096.727,2034.243,-0.299,30,24,28,-0.712304,0.678603,0.179225
47569.078,36099.797,1998.307,-1.252,20,15,19,-0.417122,0.888397,0.191730
47569.336,36100.047,1999.379,-1.290,19,13,16,-0.468862,0.766190,-0.439456
47569.320,36100.039,1997.938,-1.241,20,16,20,-0.344278,0.813893,0.468028
47569.688,36100.109,1997.947,-1.241,21,16,19,-0.052323,0.910948,0.409189
47568.398,36100.797,2000.711,-1.223,18,13,18,-0.334595,0.564123,-0.754858
47569.211,36101.086,2000.620,-1.223,19,13,17,-0.240491,0.624020,-0.743480
47568.148,36101.719,2001.460,-1.205,17,13,19,-0.302554,0.574693,-0.760387
47572.188,36099.590,2010.064,0.115,16,10,15,-0.288438,0.909238,0.300151
47573.461,36098.438,2017.353,-0.019,18,12,18,-0.256807,0.929330,0.265320
47572.922,36098.820,2014.386,0.056,18,12,18,-0.351437,0.909686,0.221275
47573.215,36098.934,2014.239,0.056,18,12,17,-0.115589,0.959780,0.255855
47567.414,36101.742,2002.124,-1.236,16,13,19,-0.574206,0.745659,-0.338054
47568.059,36102.230,2002.419,-1.171,18,14,18,-0.509370,0.858253,-0.062799
47568.656,36101.156,2005.148,1.009,26,29,36,-0.256659,0.769978,0.584175
47568.406,36101.531,2004.533,1.087,24,26,34,-0.294830,0.802505,0.518711
47567.734,36101.219,2004.638,1.058,22,18,23,-0.296548,0.784980,0.543936
47567.727,36102.008,2002.727,-1.236,19,14,19,-0.488923,0.842288,0.226946
47578.270,36096.469,2038.273,-0.433,26,20,24,-0.730700,0.674606,0.104807
47579.184,36096.164,2040.298,-0.539,28,24,29,-0.737622,0.409060,0.537199
47582.094,36093.758,2043.797,-0.482,60,52,57,-0.376169,0.354496,0.856055
47580.762,36094.031,2043.138,-0.531,57,51,57,-0.400310,0.273419,0.874639
47576.910,36097.184,2028.363,-0.003,21,17,21,-0.611885,0.787531,0.073426
47576.922,36097.238,2028.155,-0.003,21,16,20,-0.756518,0.624012,0.195678
47579.770,36095.422,2041.801,-0.530,38,30,33,-0.573944,0.573944,0.584103
47576.891,36097.188,2028.748,-0.003,22,17,22,-0.670460,0.739373,-0.061734
47580.781,36094.984,2042.873,-0.497,45,36,39,-0.500949,0.365645,0.784445
47572.602,36099.469,2010.957,0.076,17,10,15,-0.244822,0.935919,0.253216
47571.773,36099.566,2009.851,0.145,17,11,16,-0.188489,0.905034,0.381294
47570.547,36100.289,1998.512,-1.318,19,13,16,-0.363906,0.892683,-0.265874
47570.699,36100.445,1998.771,-1.290,19,13,17,-0.434933,0.827164,-0.355855
47573.262,36099.063,2013.823,0.055,18,12,16,-0.077901,0.989458,0.122084
47569.918,36101.145,2005.507,0.870,19,15,19,-0.047042,0.736989,0.674266
47575.121,36097.926,2021.314,-0.040,26,20,24,-0.523641,0.840466,0.139344
47568.070,36101.648,2004.070,1.144,26,33,44,-0.365994,0.848795,0.381569
47571.379,36100.059,2009.008,0.213,16,9,12,-0.094781,0.785956,0.610975
47575.238,36098.262,2020.556,-0.010,21,16,21,-0.572921,0.782107,0.245091
47577.996,36097.113,2034.252,-0.296,29,24,28,-0.788242,0.607573,0.097620
47577.816,36096.820,2035.564,-0.361,39,32,36,-0.848114,0.511212,0.139155
47585.500,36091.848,2045.221,-0.429,141,139,166,-0.158588,0.321313,0.933600
47586.148,36091.418,2045.529,-0.482,105,92,101,-0.264117,0.252818,0.930766
47578.270,36096.574,2037.063,-0.376,34,27,29,-0.713228,0.698934,0.052885
47579.320,36096.195,2040.486,-0.539,29,26,30,-0.606344,0.629859,0.485411
47578.098,36095.953,2039.232,-0.558,25,20,24,-0.740030,0.546408,0.392167
47579.402,36095.758,2041.134,-0.548,45,42,49,-0.611959,0.595101,0.520924
47570.848,36100.414,1997.312,1.273,22,18,20,-0.020063,0.884130,0.466810
47570.051,36101.148,2000.395,-1.262,18,13,16,-0.265390,0.681751,-0.681751
47572.984,36099.160,2012.076,0.066,17,11,14,-0.317782,0.912715,0.256837
47574.055,36098.836,2015.288,-0.001,17,10,13,-0.008919,0.999948,-0.004955
47568.539,36102.387,2002.702,-1.171,19,14,20,-0.177549,0.916153,0.359359
47576.625,36098.016,2024.543,0.040,36,28,34,-0.647892,0.720405,0.247492
47576.203,36097.785,2024.247,0.003,26,19,24,-0.497566,0.857323,0.132007
47576.363,36097.426,2026.485,0.049,18,12,15,-0.420422,0.866646,0.268645
47569.074,36101.809,2004.260,1.087,22,23,30,-0.095885,0.927786,0.360581
47568.766,36101.699,2004.462,1.087,26,30,38,-0.202282,0.881476,0.426711
47577.039,36097.563,2027.655,0.038,24,19,23,-0.766837,0.617433,0.175321
47577.164,36097.531,2028.441,-0.003,25,20,25,-0.794033,0.596630,0.116380
47576.965,36096.828,2031.878,-0.210,31,24,28,-0.412448,0.906281,0.092421
47576.785,36097.148,2030.546,-0.119,26,21,26,-0.543214,0.791990,0.278692
47571.145,36100.563,2008.381,0.260,16,9,12,-0.095044,0.770584,0.630212
47578.000,36097.215,2033.878,-0.274,30,24,28,-0.783764,0.616330,0.076500
47577.891,36096.973,2034.483,-0.296,29,23,27,-0.826904,0.561853,0.023468
47578.527,36096.816,2037.819,-0.433,27,20,24,-0.735472,0.675492,0.052840
47570.973,36100.379,1998.030,-1.318,21,15,18,-0.409669,0.908397,-0.083578
47573.609,36099.293,2012.912,0.045,18,11,15,-0.303023,0.948421,0.093137
47574.141,36099.023,2013.938,0.040,20,16,24,-0.001172,0.974073,0.226229
47574.348,36098.855,2015.671,-0.008,17,11,13,-0.023155,0.999707,0.007047
47574.027,36098.785,2016.705,-0.014,17,11,14,-0.176993,0.975347,0.131804
47574.402,36098.730,2017.604,-0.026,17,10,13,-0.296214,0.935926,0.190523
47576.813,36098.172,2024.764,0.055,38,29,34,-0.798169,0.523156,0.298721
47574.242,36098.461,2018.419,-0.029,17,10,14,-0.394396,0.890716,0.226002
47574.742,36098.668,2018.552,-0.021,17,11,14,-0.358190,0.920057,0.158727
47569.496,36101.535,2004.955,0.972,18,15,22,-0.027883,0.904196,0.426207
47568.758,36102.277,2002.938,1.111,19,15,22,0.111371,0.940613,0.320694
47583.723,36093.359,2044.749,-0.426,37,32,40,-0.210649,0.449683,0.867993
47583.352,36093.457,2044.563,-0.430,34,29,36,-0.365994,0.381569,0.848795
47579.227,36097.313,2038.820,-0.424,25,20,24,-0.584180,0.721634,0.371453
47581.859,36094.566,2043.448,-0.443,59,55,61,-0.251989,0.502432,0.827081
47580.367,36095.934,2041.789,-0.464,34,27,31,-0.137610,0.812341,0.566715
47580.738,36095.637,2042.145,-0.469,38,30,34,-0.168762,0.749546,0.640079
47577.582,36097.188,2031.411,-0.151,53,47,58,-0.585814,0.778496,0.225313
47577.266,36097.047,2031.157,-0.150,57,53,63,-0.508600,0.730594,0.455586
47577.945,36097.227,2033.489,-0.258,27,21,25,-0.708359,0.702588,0.067806
47578.340,36097.660,2034.360,-0.272,26,22,26,-0.826546,0.562491,-0.020629
47570.906,36101.305,2000.083,-1.255,18,12,16,-0.475393,0.733795,-0.485332
47569.566,36101.730,2001.132,-1.176,17,13,17,-0.117176,0.754968,-0.645208
47571.719,36100.773,1997.252,1.313,22,16,20,-0.532933,0.800185,0.275113
47572.531,36099.797,2009.847,0.096,16,10,13,-0.213172,0.889441,0.404292
47572.195,36100.020,2009.245,0.199,17,10,13,-0.170640,0.847264,0.503017
47574.918,36098.840,2015.292,-0.015,22,16,24,-0.025829,0.999085,0.034095
47576.227,36098.383,2022.636,0.005,35,29,35,-0.715327,0.691825,0.098413
47586.957,36092.266,2045.674,-0.486,78,65,70,-0.402092,0.190159,0.895635
47576.230,36097.949,2023.904,0.015,44,37,44,-0.669013,0.665757,0.330437
47586.188,36092.395,2045.156,-0.457,88,82,100,-0.304450,0.298567,0.904526
47585.359,36093.246,2044.741,-0.423,58,56,72,-0.083605,0.335747,0.938235
47584.383,36092.879,2044.855,-0.416,47,42,53,0.006035,0.264338,0.964411
47574.598,36098.266,2019.543,-0.017,20,14,18,-0.425106,0.816777,0.390078
47575.770,36098.379,2021.121,-0.025,22,17,21,-0.655158,0.681169,0.326766
47578.645,36097.352,2036.332,-0.338,40,32,37,-0.675563,0.517988,0.524693
47578.332,36097.102,2036.188,-0.338,41,33,38,-0.723904,0.515181,0.458859
47577.309,36097.926,2027.630,0.066,28,22,26,-0.883935,0.441244,0.154797
47579.969,36096.227,2041.107,-0.471,37,31,35,-0.342451,0.782975,0.519304
47570.750,36101.930,2003.313,1.053,17,11,16,-0.094510,0.969044,0.228084
47569.352,36102.254,2002.582,-1.165,16,13,22,0.244426,0.943180,0.225093
47568.859,36102.441,2002.469,-1.165,18,14,21,0.224124,0.966936,0.121667
47577.926,36097.023,2034.906,-0.327,35,28,33,-0.874826,0.482047,0.048067
47568.582,36102.457,2002.315,-1.171,19,14,20,-0.260613,0.963135,-0.066727
47570.250,36101.133,2005.606,0.870,18,13,17,-0.256520,0.816199,0.517703
47570.742,36101.320,2005.507,0.755,16,11,15,-0.154171,0.940034,0.304249
47569.559,36101.965,2003.573,1.111,17,13,19,0.136191,0.963714,0.229579
47569.457,36101.844,2004.216,1.047,17,14,20,0.040177,0.934450,0.353821
47571.883,36100.664,2008.311,0.260,16,10,11,0.077963,0.843420,0.531567
47572.262,36100.531,2008.366,0.245,17,10,13,0.171243,0.844301,0.507772
47572.809,36100.488,2008.287,0.160,16,9,12,0.032463,0.928434,0.370075
47573.305,36099.633,2010.901,0.044,16,11,14,-0.127194,0.973478,0.190162
47573.746,36099.684,2011.246,0.049,17,11,13,-0.092075,0.995492,0.022748
47571.543,36100.691,1997.957,1.315,20,14,18,-0.461729,0.868876,-0.178496
47571.113,36100.500,1998.280,-1.318,20,15,18,-0.500202,0.825411,-0.261716
47575.656,36098.863,2016.498,-0.045,18,9,12,-0.050054,0.997883,-0.041534
47575.152,36098.855,2017.071,-0.022,18,11,14,-0.081804,0.995831,-0.040357
47575.262,36098.859,2015.941,-0.030,17,10,13,0.000991,0.999889,0.014865
47570.387,36101.598,2004.643,0.909,15,12,20,0.113155,0.946508,0.302190
47570.301,36101.363,2005.223,0.870,17,12,17,0.006509,0.907291,0.420452
47575.563,36098.625,2019.957,-0.002,19,14,19,-0.618544,0.765162,0.178691
47570.969,36101.156,2006.561,0.675,16,10,13,-0.302408,0.942483,0.142390
47570.191,36101.840,2003.744,1.026,17,13,19,0.078196,0.971866,0.222176
47584.070,36094.387,2044.004,-0.411,34,30,39,-0.015252,0.614253,0.788962
47582.895,36095.090,2043.451,-0.410,32,29,35,-0.300755,0.619202,0.725351
47579.816,36096.691,2040.302,-0.446,25,21,25,-0.337544,0.795068,0.503916
47581.414,36096.016,2041.971,-0.406,24,20,24,-0.227291,0.713223,0.663062
47580.684,36096.160,2041.480,-0.421,28,22,28,-0.184857,0.768453,0.612624
47570.605,36100.813,1996.938,1.273,23,18,23,-0.064899,0.682163,0.728314
47570.363,36101.484,2000.636,-1.262,18,12,16,-0.282058,0.750561,-0.597580
47569.148,36102.023,2001.469,-1.176,17,13,18,0.023758,0.764442,-0.644255
47569.766,36102.164,2002.312,-1.098,15,12,18,0.227080,0.969794,0.089076
47571.965,36101.000,1997.176,1.354,22,16,19,-0.689932,0.702171,0.175925
47574.289,36099.121,2013.562,0.040,18,14,21,-0.008548,0.958627,0.284535
47573.563,36099.891,2010.062,0.043,16,10,12,-0.110159,0.946304,0.303932
47570.613,36100.938,1999.722,-1.290,18,12,17,-0.445539,0.754621,-0.481708
47575.211,36098.941,2014.316,0.013,26,23,38,-0.052007,0.988142,0.144465
47575.043,36098.832,2018.055,-0.009,17,11,14,-0.227322,0.971956,0.060210
47570.375,36102.051,2002.510,-1.098,15,11,17,-0.033193,0.987787,0.152231
47577.199,36097.957,2026.871,0.049,34,27,31,-0.896129,0.394880,0.202540
47571.734,36100.875,2007.905,0.338,16,10,11,0.164178,0.903693,0.395455
47575.508,36098.926,2018.586,-0.015,17,11,15,-0.207926,0.977133,0.044470
47575.785,36098.887,2019.367,-0.001,18,12,17,-0.356996,0.924882,0.130945
47578.457,36097.914,2034.606,-0.272,24,18,23,-0.773638,0.630637,-0.061491
47579.449,36097.500,2038.678,-0.401,26,21,25,-0.291628,0.915510,0.277119
47579.641,36097.125,2039.445,-0.424,26,21,25,-0.267848,0.834510,0.481508
47580.906,36096.742,2040.797,-0.412,23,20,25,-0.270806,0.809289,0.521263
47582.020,36095.906,2042.232,-0.403,23,19,24,-0.113985,0.735720,0.667625
47573.219,36100.301,2008.893,0.137,16,10,11,-0.083926,0.933844,0.347694
47575.652,36099.020,2013.982,0.024,25,22,35,-0.294665,0.945888,0.135896
47575.449,36099.219,2013.338,0.031,18,12,18,-0.094688,0.937541,0.334741
47574.105,36099.957,2010.137,0.064,16,9,11,-0.217806,0.923895,0.314608
47574.195,36099.625,2011.625,0.036,16,10,13,-0.074560,0.976610,0.201678
47571.578,36101.098,1998.773,-1.372,19,12,17,-0.535995,0.733901,-0.417251
47571.277,36101.086,1999.201,-1.255,17,13,16,-0.546909,0.725356,-0.418030
47574.684,36099.590,2011.870,0.012,16,10,12,-0.034967,0.973059,0.227891
47574.793,36099.402,2012.675,0.028,16,8,12,-0.059596,0.957337,0.282763
47576.324,36099.066,2015.345,0.009,17,10,12,-0.344535,0.929283,0.133147
47576.344,36099.094,2017.435,-0.033,18,11,13,-0.297274,0.953064,-0.057414
47570.719,36102.148,2002.131,-1.085,16,11,16,-0.227785,0.973694,-0.005901
47577.266,36099.090,2024.591,0.086,32,24,30,-0.918342,0.345980,0.192211
47577.016,36098.633,2024.457,0.086,37,28,34,-0.831522,0.461957,0.308493
47570.816,36101.547,2004.662,0.909,14,10,16,0.025732,0.964331,0.263445
47572.281,36101.145,2005.613,0.753,16,10,12,0.305472,0.949929,0.065735
47572.008,36101.066,2007.185,0.366,17,10,12,0.205353,0.967352,0.148525
47587.203,36092.664,2045.720,-0.486,66,53,55,-0.134000,0.174075,0.975573
47587.090,36092.902,2045.617,-0.479,70,57,60,-0.477873,0.229075,0.848034
47586.145,36092.875,2045.019,-0.437,66,62,77,-0.210337,0.309153,0.927460
47578.758,36098.027,2035.874,-0.303,38,32,38,-0.552752,0.762250,0.336808
47579.027,36097.531,2036.731,-0.330,35,27,33,-0.723980,0.576229,0.379228
47577.074,36098.449,2025.017,0.055,43,34,39,-0.893161,0.441734,0.084469
47576.984,36098.414,2025.696,0.075,47,37,40,-0.904052,0.415225,0.101376
47577.328,36098.434,2027.165,0.086,38,29,33,-0.941031,0.289865,0.174469
47577.781,36098.344,2028.929,0.016,28,21,24,-0.779077,0.599172,0.184478
47577.645,36098.309,2028.570,0.016,28,22,25,-0.818031,0.494587,0.293612
47578.875,36098.375,2031.435,-0.090,32,26,31,-0.725351,0.619202,0.300755
47578.926,36098.094,2032.289,-0.144,30,24,29,-0.674190,0.738398,-0.015354
47578.316,36097.656,2033.361,-0.235,27,22,24,-0.783394,0.620829,-0.029430
47578.508,36097.910,2033.810,-0.238,25,20,23,-0.786564,0.617321,0.015260
47573.145,36100.570,2007.917,0.247,16,10,12,0.128262,0.971492,0.199378
47570.438,36101.875,2001.147,-1.161,16,11,17,-0.210505,0.837476,-0.504303
47569.898,36102.070,2001.701,-1.176,16,12,17,0.135430,0.934328,-0.329682
47572.219,36101.230,2004.994,0.753,14,10,16,0.325824,0.933479,0.149852
47571.711,36101.391,2005.001,0.753,14,9,14,0.216576,0.953740,0.208505
47571.430,36101.477,2004.830,0.753,14,9,14,0.083530,0.971196,0.223163
47572.590,36100.883,2007.303,0.366,16,10,13,0.300961,0.936169,0.181686
47571.898,36101.027,1997.045,1.313,22,17,20,-0.591835,0.678527,0.435124
47573.027,36100.852,2006.465,0.451,13,9,14,0.325686,0.939531,0.105881
47573.871,36100.145,2009.392,0.089,16,9,11,-0.139376,0.928712,0.343610
47575.523,36099.637,2012.100,0.016,16,10,13,-0.239377,0.921674,0.305313
47576.848,36098.926,2023.496,0.057,51,44,52,-0.847260,0.459766,0.266018
47577.262,36099.270,2024.331,0.068,32,25,30,-0.853712,0.450528,0.261153
47577.242,36098.863,2025.000,0.097,35,27,32,-0.949663,0.313252,0.003714
47577.160,36098.746,2025.520,0.097,49,39,43,-0.938282,0.345683,-0.011396
47576.371,36099.090,2019.608,0.006,18,11,16,-0.344863,0.938584,-0.011369
47586.906,36093.004,2045.474,-0.479,73,62,65,-0.566176,0.258779,0.782610
47578.137,36098.695,2028.886,0.032,32,25,29,-0.619362,0.733999,0.278633
47578.340,36098.172,2030.796,-0.064,34,31,37,-0.621254,0.674267,0.399259
47578.617,36098.551,2030.716,-0.070,33,28,33,-0.664094,0.634284,0.395807
47577.578,36099.094,2027.539,0.072,38,29,33,-0.927080,0.254912,0.274849
47580.398,36096.996,2040.123,-0.406,23,18,23,-0.276050,0.846655,0.454942
47579.367,36098.016,2036.734,-0.337,27,22,28,-0.606579,0.717162,0.343132
47578.656,36098.137,2034.958,-0.255,25,19,25,-0.664827,0.743042,0.076767
47573.637,36100.566,2007.297,0.247,16,10,12,0.146372,0.987131,0.064404
47574.262,36100.367,2009.081,0.096,16,8,10,-0.082436,0.975699,0.203014
47575.742,36099.367,2013.137,0.031,17,12,17,-0.391878,0.862132,0.321186
47572.004,36100.938,1998.110,-1.372,18,12,16,-0.616353,0.701367,-0.358041
47576.586,36099.133,2016.554,-0.047,18,10,14,-0.504004,0.861414,-0.062826
47576.992,36099.242,2023.637,0.057,33,25,32,-0.839057,0.483186,0.250030
47586.105,36093.199,2044.890,-0.421,59,53,64,-0.228587,0.428787,0.874008
47577.336,36099.223,2025.898,0.116,50,40,44,-0.961873,0.263022,0.074968
47578.004,36098.480,2029.323,-0.010,28,21,25,-0.637602,0.755174,0.152241
47579.004,36098.215,2032.671,-0.155,28,22,26,-0.674380,0.727973,-0.123562
47582.551,36096.063,2042.099,-0.394,23,19,24,-0.076669,0.771034,0.632161
47581.426,36096.523,2041.434,-0.413,24,19,24,-0.164882,0.772977,0.612634
47571.785,36101.879,2003.558,0.942,14,12,18,0.081719,0.893366,0.441835
47571.316,36101.715,2000.169,-1.255,19,13,16,-0.569306,0.596336,-0.565928
47571.297,36102.066,2000.602,-1.179,19,14,17,-0.596217,0.695311,-0.401332
47570.867,36101.934,2000.943,-1.161,17,13,17,-0.450353,0.782021,-0.430843
47570.742,36102.094,2001.421,-1.161,16,12,16,-0.281646,0.934615,-0.217189
47579.176,36098.582,2034.809,-0.230,21,16,20,-0.573540,0.817117,0.058062
47573.758,36100.617,2006.160,0.555,15,8,13,0.233339,0.971228,0.047645
47575.367,36099.793,2011.554,0.012,17,11,14,-0.306525,0.892662,0.330449
47577.359,36099.352,2017.706,-0.007,20,14,18,-0.157843,0.978127,0.135471
47573.727,36100.707,2004.933,0.653,16,10,13,0.003445,0.981878,0.189485
47577.215,36099.402,2019.797,-0.025,17,10,14,-0.347721,0.935567,-0.061671
47576.977,36099.555,2022.711,0.034,23,18,23,-0.647476,0.760819,0.043921
47577.395,36099.418,2024.961,0.090,34,27,32,-0.931373,0.363557,0.019270
47577.484,36098.930,2026.603,0.089,42,33,38,-0.926293,0.339501,0.163463
47577.461,36098.762,2027.262,0.072,38,29,33,-0.954747,0.249703,0.161573
47577.047,36099.297,2019.002,-0.000,17,10,14,-0.316601,0.947241,-0.049990
47578.340,36098.430,2030.395,-0.028,29,24,29,-0.652132,0.671745,0.351400
47577.563,36099.145,2026.901,0.089,37,28,33,-0.972087,0.233732,0.020377
47583.305,36095.906,2042.427,-0.389,22,18,24,-0.145780,0.752946,0.641732
47574.992,36100.520,2008.821,0.109,17,10,12,-0.353376,0.931140,0.090024
47574.840,36100.496,2008.437,0.109,16,9,13,-0.286521,0.957940,0.015986
47576.219,36099.945,2012.273,0.023,17,11,15,-0.492047,0.811641,0.314847
47575.539,36100.145,2010.886,0.027,17,12,15,-0.475973,0.817536,0.324168
47577.098,36099.398,2015.572,0.004,18,11,15,-0.495601,0.868314,0.020256
47576.813,36099.746,2014.094,0.035,17,11,14,-0.588604,0.765343,0.260374
47577.176,36099.449,2016.957,-0.015,19,12,16,-0.264392,0.956285,0.124962
47577.520,36099.375,2017.961,-0.007,18,12,15,-0.271360,0.960489,-0.061845
47577.105,36099.266,2018.357,-0.000,18,12,15,-0.254123,0.967111,-0.010839
47584.539,36095.422,2043.111,-0.416,24,22,29,-0.041098,0.673162,0.738352
47582.184,36097.293,2040.533,-0.319,34,28,33,-0.226513,0.805892,0.547020
47577.063,36099.414,2023.481,0.057,28,22,27,-0.680324,0.705120,0.199913
47578.535,36099.305,2028.616,0.014,30,22,29,-0.675449,0.507844,0.534661
47583.633,36096.055,2042.406,-0.390,24,20,26,-0.277020,0.577784,0.767741
47583.375,36096.230,2042.119,-0.387,23,20,25,-0.405823,0.627784,0.664225
47579.512,36098.750,2034.421,-0.206,26,20,24,-0.542254,0.838029,0.060563
47579.051,36098.516,2034.151,-0.208,21,17,21,-0.662435,0.748900,0.018130
47578.746,36098.164,2034.000,-0.238,23,18,22,-0.763113,0.645926,-0.020926
47579.164,36098.488,2035.289,-0.260,21,15,19,-0.581982,0.789724,0.193994
47573.949,36101.086,2003.902,0.862,18,13,18,-0.168366,0.930882,0.324209
47571.551,36102.309,2002.643,-1.016,17,11,16,-0.361175,0.897778,0.252085
47572.066,36101.410,1996.790,1.306,19,14,18,-0.377633,0.644780,0.664569
47572.434,36101.613,1998.326,-1.359,17,12,16,-0.699550,0.641389,-0.315040
47572.012,36101.285,1998.564,-1.372,19,12,15,-0.641258,0.641258,-0.421398
47571.824,36101.504,1999.185,-1.322,18,12,15,-0.601651,0.687838,-0.406073
47573.477,36101.453,2003.180,0.942,24,21,29,0.291413,0.808080,0.511942
47573.133,36101.289,2003.743,0.862,19,15,23,0.283536,0.874866,0.392704
47572.633,36101.539,2003.591,0.943,14,12,20,0.335243,0.846683,0.413206
47571.910,36102.219,2000.051,-1.240,19,14,17,-0.629684,0.575663,-0.521642
47571.391,36102.320,2000.990,-1.179,18,12,18,-0.608863,0.739905,-0.286054
47574.457,36100.918,2004.827,0.753,17,10,13,-0.345484,0.867550,0.357768
47575.285,36100.652,2007.404,0.170,17,10,13,-0.484478,0.867487,0.112902
47575.254,36100.617,2007.809,0.170,17,10,13,-0.375998,0.926612,0.003824
47574.207,36101.383,2003.204,0.925,27,27,41,-0.139391,0.747916,0.648993
47571.703,36102.609,2001.181,-1.100,18,14,20,-0.560594,0.826064,-0.057895
47586.652,36093.645,2044.878,-0.429,62,53,58,-0.659705,0.498556,0.562344
47586.992,36094.004,2044.919,-0.430,60,51,58,-0.584076,0.567146,0.580690
47586.703,36094.051,2044.647,-0.426,46,39,44,-0.385548,0.509184,0.769470
47577.859,36099.574,2016.143,-0.013,21,15,17,-0.138472,0.976790,0.163422
47577.355,36099.758,2023.069,0.050,21,16,21,-0.524717,0.849342,0.057369
47577.457,36099.602,2025.672,0.116,39,31,36,-0.843710,0.536659,0.012228
47583.703,36096.574,2042.037,-0.377,24,20,26,-0.344171,0.670400,0.657351
47578.793,36098.723,2030.675,-0.032,31,26,32,-0.682397,0.613000,0.398202
47578.445,36098.738,2029.875,-0.004,27,21,25,-0.693264,0.711078,0.117276
47578.059,36099.738,2027.725,0.047,38,31,35,-0.717009,0.514051,0.470797
47575.090,36100.996,2005.609,0.593,17,9,12,-0.649606,0.697963,0.301430
47575.508,36100.828,2007.313,0.170,17,9,13,-0.631102,0.760636,0.152127
47575.492,36100.762,2008.261,0.109,17,10,13,-0.443097,0.895622,0.039057
47575.801,36100.715,2009.760,0.030,22,15,18,-0.586462,0.785522,0.197529
47575.520,36100.688,2009.073,0.030,18,11,13,-0.415229,0.895112,0.162356
47576.391,36100.531,2011.777,0.016,31,24,26,-0.760077,0.498545,0.416816
47576.543,36100.293,2012.200,0.016,27,20,22,-0.644983,0.628317,0.434989
47575.973,36100.309,2011.133,0.010,20,14,18,-0.669946,0.653566,0.352172
47578.008,36099.738,2020.021,-0.025,18,10,13,-0.345411,0.936419,-0.061727
47587.906,36093.621,2045.612,-0.523,57,48,54,-0.160250,0.239713,0.957527
47577.477,36099.770,2021.993,0.011,18,13,18,-0.457181,0.885001,-0.088081
47577.500,36099.828,2023.239,0.050,20,16,20,-0.372050,0.924038,0.087939
47587.566,36094.465,2044.951,-0.500,41,34,42,-0.472038,0.636664,0.609786
47585.984,36094.563,2044.057,-0.425,29,25,32,-0.073917,0.671049,0.737719
47577.641,36099.789,2023.852,0.080,21,17,22,-0.456048,0.889090,0.039244
47584.711,36096.504,2042.389,-0.409,35,31,38,-0.188729,0.535990,0.822858
47580.852,36097.836,2038.516,-0.371,26,20,27,-0.459766,0.847260,0.266018
47579.934,36099.141,2032.512,-0.136,23,18,23,-0.662730,0.678934,-0.315972
47579.648,36098.887,2034.919,-0.224,27,21,25,-0.505777,0.862638,0.006708
47572.078,36101.945,1996.241,1.305,19,15,19,-0.307000,0.784202,0.539238
47572.352,36102.285,1999.500,-1.277,18,13,16,-0.649067,0.619033,-0.442166
47573.113,36101.695,2003.074,0.942,20,16,23,0.340088,0.626479,0.701330
47571.934,36102.566,2000.457,-1.161,18,14,19,-0.634082,0.650725,-0.417729
47572.969,36102.328,1996.156,1.311,16,12,17,-0.376219,0.864536,0.333222
47575.574,36100.824,2007.742,0.170,17,11,14,-0.588798,0.805498,0.067006
47577.164,36099.816,2014.700,0.021,19,11,16,-0.587182,0.744836,0.316917
47577.441,36099.629,2015.536,0.004,19,14,17,-0.500142,0.804990,0.319138
47577.309,36099.508,2015.790,0.004,19,13,16,-0.256513,0.965332,0.048329
47574.652,36101.941,2002.751,0.970,24,20,24,-0.219057,0.619886,0.753495
47574.637,36101.277,2004.134,0.753,19,14,20,-0.449252,0.847558,0.282519
47571.996,36102.590,2002.411,-1.003,16,12,18,-0.244382,0.893104,0.377681
47572.371,36103.078,2000.644,-1.163,19,14,19,-0.595098,0.774400,-0.214854
47577.770,36099.883,2024.768,0.072,22,17,22,-0.553248,0.830580,-0.063673
47577.773,36099.969,2025.694,0.094,26,20,25,-0.611218,0.789904,0.049635
47585.465,36095.508,2043.091,-0.425,36,35,46,-0.020926,0.645926,0.763113
47583.594,36097.047,2041.342,-0.332,39,34,40,-0.365700,0.683843,0.631366
47578.934,36099.258,2030.157,-0.005,28,22,27,-0.668350,0.728697,0.149360
47578.398,36099.883,2027.984,0.047,31,24,29,-0.527456,0.725872,0.441476
47580.145,36099.359,2031.963,-0.114,23,19,24,-0.582808,0.809058,0.075894
47580.023,36099.195,2032.287,-0.114,24,19,25,-0.734474,0.673146,0.086151
47579.707,36098.914,2034.403,-0.195,30,24,27,-0.646738,0.736263,0.199115
47580.070,36099.074,2035.070,-0.233,31,25,29,-0.609752,0.761803,0.218766
47574.715,36101.750,2003.033,0.894,29,26,32,-0.395037,0.775444,0.492577
47574.973,36101.375,2004.425,0.728,18,12,16,-0.324534,0.938591,0.117155
47575.223,36101.484,2004.043,0.761,23,17,21,-0.510618,0.854823,0.092452
47587.891,36094.734,2044.971,-0.518,36,31,37,-0.402250,0.660485,0.633999
47578.348,36100.117,2026.915,0.088,18,13,17,-0.444502,0.881765,0.157820
47585.355,36096.445,2042.443,-0.450,31,27,33,0.009256,0.450893,0.892530
47578.398,36100.004,2027.697,0.047,24,18,21,-0.390866,0.892355,0.225670
47578.723,36099.703,2028.497,0.024,26,21,25,-0.590138,0.603665,0.536028
47582.973,36097.883,2040.129,-0.314,38,32,38,-0.566283,0.686555,0.456033
47583.242,36097.633,2040.768,-0.323,38,33,40,-0.387498,0.677710,0.624944
47581.570,36098.895,2037.022,-0.308,31,25,29,-0.572045,0.615919,0.541671
47581.781,36098.363,2038.413,-0.350,36,29,33,-0.436212,0.748968,0.498764
47582.422,36098.613,2038.561,-0.281,38,32,37,-0.481214,0.757132,0.441797
47573.328,36102.508,1998.485,-1.316,18,11,16,-0.470302,0.815508,-0.337288
47573.219,36102.961,1999.345,-1.277,18,12,16,-0.432470,0.751479,-0.498245
47580.160,36099.344,2034.535,-0.195,30,25,30,-0.723251,0.654519,0.220256
47578.242,36099.547,2016.877,-0.016,19,12,15,-0.283579,0.955956,0.075707
47578.109,36099.465,2017.620,-0.002,18,10,14,-0.263814,0.956819,-0.122063
47573.273,36102.344,1998.088,-1.364,17,11,16,-0.645461,0.732559,-0.216190
47577.930,36099.695,2015.797,0.020,20,14,17,-0.330962,0.836032,0.437623
47578.262,36099.605,2016.266,-0.013,20,13,16,-0.254437,0.928199,0.271495
47580.316,36099.148,2035.314,-0.233,31,26,31,-0.580775,0.664461,0.470311
47572.496,36103.172,2000.840,-1.163,18,13,18,-0.462269,0.880714,0.103198
47572.719,36103.148,2001.414,-1.087,17,14,18,-0.359017,0.896804,0.258551
47571.930,36102.742,2001.534,-1.100,17,13,19,-0.461773,0.879500,0.115088
47578.605,36100.309,2024.835,0.061,16,10,15,-0.198977,0.969209,-0.145060
47578.422,36100.137,2022.413,-0.005,17,12,17,-0.281971,0.959194,0.020932
47579.129,36099.621,2029.156,-0.003,29,25,33,-0.627937,0.723806,0.286007
47578.879,36099.430,2029.112,0.014,28,22,28,-0.604809,0.671455,0.428198
47580.516,36099.621,2031.427,-0.110,23,17,23,-0.489555,0.861443,0.135100
47579.953,36099.520,2033.127,-0.144,22,18,23,-0.685137,0.697566,-0.209736
47579.461,36098.945,2033.041,-0.157,23,18,23,-0.718266,0.658802,-0.223773
47588.301,36094.582,2045.274,-0.555,40,34,41,-0.298458,0.519539,0.800626
47586.203,36096.207,2042.525,-0.500,38,37,47,-0.049683,0.631682,0.773634
47585.402,36096.035,2042.680,-0.431,31,28,35,0.015134,0.581952,0.813082
47583.855,36097.344,2041.215,-0.332,42,37,43,-0.503699,0.645206,0.574453
47575.305,36101.461,2005.022,0.612,17,10,14,-0.627736,0.720853,0.293800
47575.453,36101.746,2004.653,0.673,21,14,17,-0.666730,0.745004,-0.020966
47575.484,36101.738,2004.853,0.612,19,12,16,-0.614132,0.741084,0.271361
47575.941,36101.270,2007.051,0.247,17,10,12,-0.670078,0.721974,0.172480
47577.754,36100.473,2013.875,0.018,24,18,22,-0.235698,0.944172,0.230185
47576.422,36100.938,2011.114,0.003,26,21,24,-0.784650,0.532156,0.318015
47578.555,36100.223,2015.294,0.019,17,9,12,-0.237538,0.895562,0.376224
47578.664,36099.809,2018.926,-0.056,16,9,14,-0.180753,0.976067,-0.120918
47579.336,36099.898,2019.210,-0.152,16,10,12,-0.097731,0.983345,-0.153233
47579.043,36099.809,2018.677,-0.056,16,9,12,-0.083351,0.992219,-0.092485
47587.074,36095.152,2043.614,-0.514,52,49,60,-0.182295,0.755223,0.629608
47585.688,36096.797,2042.285,-0.450,43,38,48,0.044542,0.444068,0.894885
47578.973,36100.527,2025.781,0.077,16,10,14,-0.190908,0.980627,-0.043873
47578.508,36100.355,2026.115,0.093,16,10,14,-0.313508,0.937787,0.149225
47583.230,36098.074,2040.205,-0.305,32,27,33,-0.427421,0.727771,0.536339
47579.359,36100.160,2028.481,0.009,20,15,19,-0.397326,0.840195,0.369058
47580.422,36099.746,2030.649,-0.057,19,13,18,-0.388550,0.895865,0.215535
47578.586,36099.906,2019.989,-0.085,16,10,14,-0.266427,0.951908,-0.151288
47574.090,36102.145,2002.511,1.013,21,18,23,-0.108959,0.556416,0.823729
47573.832,36101.938,2002.643,0.970,21,18,24,0.178311,0.525943,0.831619
47573.508,36102.762,2002.237,-1.068,19,15,21,0.132413,0.507824,0.851224
47572.656,36103.074,2000.129,-1.163,18,13,18,-0.615189,0.655201,-0.438468
47580.004,36099.926,2029.605,-0.015,23,18,24,-0.206908,0.930382,0.302620
47576.246,36101.313,2008.873,0.052,24,17,21,-0.735697,0.676390,0.035302
47577.105,36100.719,2012.405,0.031,24,16,21,-0.544750,0.698013,0.464786
47576.523,36101.414,2010.389,0.012,26,20,24,-0.703634,0.681984,0.199492
47581.039,36099.668,2035.427,-0.216,26,20,25,-0.525852,0.702805,0.479109
47575.293,36101.652,2003.704,0.833,28,22,27,-0.508478,0.756994,0.410379
47579.230,36100.348,2021.807,-0.069,15,11,17,-0.266584,0.963805,-0.003619
47575.434,36101.664,2004.029,0.761,23,16,20,-0.696435,0.713810,0.073842
47578.785,36100.180,2021.028,-0.016,15,12,19,-0.345288,0.928563,-0.136189
47573.223,36103.332,2001.325,-1.089,18,13,18,-0.275109,0.904769,0.325128
47588.273,36094.832,2045.069,-0.562,37,32,38,-0.223848,0.712244,0.665283
47583.492,36097.789,2040.675,-0.298,33,29,37,-0.205788,0.741146,0.639026
47583.363,36098.289,2039.937,-0.293,27,21,27,-0.295395,0.752059,0.589193
47575.875,36101.723,2005.721,0.508,17,10,13,-0.657101,0.698669,0.282985
47576.215,36101.961,2005.875,0.392,17,11,13,-0.598167,0.766840,0.232707
47576.336,36101.461,2009.662,0.012,29,22,25,-0.700453,0.709190,0.080093
47578.703,36099.871,2016.084,-0.002,17,11,14,-0.258961,0.895265,0.362545
47579.332,36100.121,2015.599,-0.004,16,10,12,0.003637,0.961380,0.275200
47580.977,36100.188,2034.199,-0.204,21,15,20,-0.573049,0.818038,0.049279
47580.145,36099.797,2018.556,-0.151,16,10,12,0.148128,0.983904,-0.099956
47578.805,36100.262,2015.285,-0.004,16,9,12,-0.019390,0.924236,0.381328
47585.090,36097.461,2041.692,-0.384,54,50,64,-0.104614,0.726407,0.679256
47579.816,36100.539,2021.553,0.114,16,11,16,-0.264032,0.964025,0.030701
47575.754,36102.059,2003.881,0.833,27,20,24,-0.762083,0.629284,0.152417
47579.480,36100.309,2023.057,-0.015,16,10,13,-0.114504,0.991993,0.053284
47586.871,36095.488,2043.190,-0.490,62,65,85,-0.113698,0.639367,0.760449
47579.215,36100.539,2025.849,0.077,16,10,15,-0.031874,0.994694,-0.097821
47579.926,36100.164,2028.815,0.009,18,13,17,-0.158565,0.955390,0.249174
47574.086,36102.766,1998.198,-1.316,17,11,15,-0.330680,0.931163,-0.153580
47573.918,36103.004,1998.917,-1.247,17,11,16,-0.222935,0.890265,-0.397150
47573.152,36103.461,2000.122,-1.157,18,13,18,-0.465033,0.814205,-0.347584
47575.977,36102.129,2004.641,0.673,25,19,24,-0.476509,0.789875,0.386053
47580.906,36100.383,2028.402,-0.001,16,10,15,-0.137399,0.979126,0.149778
47579.984,36100.391,2027.687,0.040,17,11,14,-0.086430,0.986245,0.140892
47576.918,36102.008,2008.075,0.080,20,13,16,-0.652286,0.751961,0.095278
47580.871,36099.953,2030.401,-0.047,19,13,18,-0.313483,0.943117,0.110720
47580.711,36099.723,2032.019,-0.126,23,19,25,-0.559878,0.828066,-0.029031
47580.262,36099.773,2018.133,-0.151,16,9,13,0.136908,0.990040,0.032813
47577.371,36100.781,2012.559,0.031,21,14,18,-0.346441,0.799847,0.490126
47577.344,36100.555,2012.989,0.027,25,19,23,-0.379857,0.862751,0.333720
47578.031,36101.234,2012.067,-0.010,16,11,15,-0.040995,0.916446,0.398052
47576.965,36101.844,2009.529,0.031,18,11,15,-0.448899,0.878912,0.161255
47576.793,36101.605,2010.606,0.003,22,15,20,-0.331000,0.918490,0.216368
47580.930,36100.191,2034.592,-0.204,22,18,22,-0.402012,0.877802,0.260480
47585.484,36097.109,2042.113,-0.384,54,48,59,-0.020966,0.666730,0.745004
47585.605,36097.703,2041.499,-0.452,35,29,36,-0.077010,0.725056,0.684371
47580.129,36100.344,2024.627,-0.006,16,9,12,-0.057141,0.993813,-0.095236
47588.977,36094.938,2045.106,-0.603,35,29,36,-0.112926,0.805145,0.582227
47588.703,36095.289,2044.341,-0.606,30,25,31,-0.238316,0.905014,0.352356
47580.355,36100.410,2023.389,-0.021,15,10,14,-0.136767,0.985908,0.096331
47575.953,36102.398,2003.627,0.858,25,19,24,-0.698024,0.653094,0.293651
47573.758,36103.273,2001.827,-1.089,18,15,21,-0.177523,0.787475,0.590227
47580.703,36100.215,2029.148,-0.014,16,10,14,-0.179170,0.952430,0.246527
47576.543,36102.184,2005.912,0.392,19,13,15,-0.625730,0.747443,0.223141
47576.402,36102.133,2005.509,0.560,22,16,20,-0.603877,0.789007,0.113135
47579.922,36100.090,2015.468,0.003,16,10,11,0.108987,0.973367,0.201689
47581.348,36100.172,2032.127,-0.135,24,19,24,-0.520612,0.850756,-0.071954
47581.422,36100.512,2033.796,-0.188,20,13,18,-0.420260,0.907290,0.014401
47577.418,36101.500,2011.314,-0.001,17,11,16,-0.063839,0.941953,0.329619
47577.336,36101.695,2010.648,0.003,18,12,16,-0.015800,0.963797,0.266168
47587.301,36096.203,2042.687,-0.535,27,24,31,-0.058355,0.599205,0.798466
47579.168,36100.320,2015.006,-0.004,17,10,13,0.089293,0.969644,0.227634
47589.969,36094.457,2045.427,-0.701,34,29,38,0.154988,0.450479,0.879231
47575.113,36102.828,2002.450,0.961,20,14,19,-0.406477,0.381171,0.830352
47580.836,36100.414,2024.444,-0.066,17,9,12,-0.083307,0.996523,0.001055
47573.422,36103.594,2000.804,-1.157,18,15,21,-0.318167,0.926218,0.202213
47579.488,36100.418,2027.209,0.047,15,10,14,-0.121708,0.979814,0.158590
47573.340,36103.582,2000.412,-1.157,18,13,18,-0.321891,0.944988,-0.058173
47574.074,36103.648,2001.154,-1.089,17,14,19,-0.252350,0.918555,0.304262
47580.730,36099.742,2018.919,-0.207,16,11,12,0.133387,0.971818,-0.194364
47574.914,36103.059,1998.602,-1.279,17,12,14,-0.209841,0.944972,-0.250987
47574.949,36103.164,1998.903,-1.279,18,12,16,-0.170357,0.903323,-0.393683
47574.625,36103.473,1999.685,-1.225,18,12,16,-0.165530,0.871596,-0.461433
47577.457,36102.117,2009.365,0.012,16,10,12,-0.195333,0.937876,0.286765
47581.266,36100.090,2029.979,-0.038,19,13,16,-0.346907,0.934389,0.081078
47581.250,36100.160,2029.696,-0.014,18,13,16,-0.261987,0.930409,0.256323
47581.559,36100.234,2030.364,0.057,22,16,20,-0.412453,0.910559,0.027673
47578.160,36101.641,2010.564,-0.017,16,11,18,0.087550,0.965591,0.244887
47575.379,36103.168,1998.503,-1.260,18,12,16,-0.374400,0.908027,-0.187917
47578.512,36100.836,2012.866,0.009,16,9,12,0.006533,0.902865,0.429874
47590.172,36094.008,2045.636,-0.638,42,37,51,-0.006220,0.322186,0.946656
47589.773,36094.711,2045.347,-0.696,32,27,36,0.050044,0.434167,0.899442
47573.742,36103.430,2001.531,-1.089,18,12,18,-0.255921,0.894983,0.365390
47589.047,36095.699,2043.645,-0.674,25,22,29,-0.274995,0.849565,0.450131
47589.680,36095.004,2045.137,-0.696,32,27,34,-0.126800,0.720524,0.681738
47584.664,36098.570,2040.251,-0.300,34,27,32,-0.335233,0.733626,0.591111
47581.492,36100.340,2029.227,0.018,16,12,17,-0.242091,0.950782,0.193402
47581.746,36100.352,2029.753,0.036,21,15,18,-0.343273,0.932128,0.115329
47575.613,36103.285,1998.350,-1.260,17,12,15,-0.536784,0.843123,0.031738
47575.035,36103.488,1996.183,1.157,22,15,19,-0.445654,0.878157,0.173878
47575.184,36103.250,1997.083,1.250,18,12,16,-0.347502,0.912734,0.214846
47580.512,36100.488,2013.259,0.344,16,10,12,-0.043437,0.922711,0.383037
47579.832,36100.691,2012.683,-0.001,16,9,13,0.038195,0.920640,0.388539
47587.938,36096.234,2042.673,-0.634,26,21,28,-0.070962,0.696582,0.713960
47574.055,36103.742,2000.711,-1.131,18,14,20,-0.236582,0.965512,0.108700
47574.492,36103.398,2001.897,1.036,18,13,18,-0.279527,0.688436,0.669268
47574.730,36103.645,2001.623,1.036,18,13,18,-0.255315,0.868676,0.424518
47583.723,36099.125,2038.890,-0.271,30,25,31,-0.272285,0.826190,0.493225
47580.789,36100.434,2024.868,0.035,17,10,14,0.024287,0.997891,-0.060190
47580.199,36100.535,2026.479,0.052,14,9,13,0.027344,0.999564,-0.011140
47581.809,36099.609,2018.071,0.017,17,10,13,0.015710,0.998093,-0.059697
47581.191,36099.680,2018.781,-0.141,17,10,12,0.034347,0.993852,-0.105257
47575.324,36103.293,1998.970,-1.243,18,12,16,-0.284509,0.883632,-0.371818
47574.813,36103.754,2000.075,-1.171,18,13,18,-0.152973,0.896392,-0.416029
47574.223,36103.625,1999.947,-1.225,19,13,17,-0.102363,0.840533,-0.532001
47580.141,36100.332,2020.210,0.160,17,11,14,0.003763,0.939530,-0.342446
47580.512,36100.602,2021.541,0.160,16,11,15,-0.023859,0.998978,-0.038382
47576.281,36102.695,2003.717,0.748,18,13,18,-0.743183,0.529908,0.408505
47576.609,36102.891,2004.251,0.748,17,11,15,-0.798675,0.498973,0.336368
47581.219,36100.492,2026.555,0.042,15,11,14,0.141365,0.989554,-0.028273
47580.941,36100.523,2026.664,0.042,13,10,14,0.027896,0.999098,0.032029
47577.379,36102.250,2008.513,0.063,21,14,18,-0.459047,0.855979,0.237856
47581.344,36100.465,2027.190,0.025,15,11,16,0.087219,0.996021,0.018305
47577.762,36102.023,2009.559,-0.012,16,10,11,-0.024428,0.932136,0.361283
47581.059,36100.531,2023.314,0.120,14,9,14,-0.104973,0.990903,0.084209
47577.641,36102.227,2008.865,-0.012,18,11,15,-0.159193,0.942911,0.292534
47581.059,36100.602,2013.128,0.238,16,9,13,-0.200225,0.870607,0.449393
47581.570,36099.789,2016.192,0.205,16,11,14,0.134660,0.960921,0.241864
47581.383,36099.938,2015.759,0.212,17,10,13,0.104345,0.962294,0.251201
47582.340,36099.578,2019.181,-0.022,17,10,14,0.209222,0.977553,-0.024823
47580.523,36100.898,2012.354,0.277,16,9,11,-0.078176,0.901084,0.426540
47575.305,36103.188,1997.633,1.250,19,12,16,-0.431388,0.890007,0.147618
47588.391,36096.336,2042.635,-0.634,25,20,27,0.032444,0.701070,0.712354
47581.059,36100.465,2024.172,-0.066,16,9,12,-0.075129,0.996269,0.042464
47587.516,36096.832,2042.268,-0.581,24,20,26,0.056850,0.500554,0.863837
47576.754,36102.770,2004.684,0.598,18,12,15,-0.759377,0.487116,0.431352
47577.023,36102.914,2005.063,0.520,20,13,18,-0.792180,0.486877,0.367970
47577.195,36102.637,2006.159,0.277,26,20,23,-0.611229,0.744588,0.268306
47578.129,36102.258,2009.051,-0.012,16,9,11,-0.048997,0.920354,0.388005
47581.953,36100.445,2028.347,0.016,16,11,15,-0.071750,0.997003,-0.028914
47581.816,36100.320,2014.008,0.259,16,9,11,-0.174890,0.914265,0.365422
47582.789,36099.496,2019.324,0.008,18,11,14,0.068785,0.993441,0.091338
47581.965,36099.711,2016.232,0.205,17,10,14,-0.020508,0.968720,0.247307
47581.906,36099.883,2015.845,0.223,17,10,13,0.014003,0.935661,0.352623
47574.836,36103.398,1995.750,1.084,22,16,19,-0.456024,0.878960,0.139540
47576.078,36103.684,1997.271,1.151,20,14,16,-0.536172,0.839289,0.090077
47588.852,36096.496,2042.392,-0.701,23,18,23,0.049844,0.747658,0.662211
47587.543,36097.383,2041.980,-0.594,41,43,55,-0.023286,0.538324,0.842416
47586.996,36097.656,2041.726,-0.559,43,41,49,-0.091157,0.588902,0.803048
47574.949,36103.957,2000.836,-1.106,17,12,17,-0.197188,0.973382,0.116806
47590.730,36094.328,2045.554,-0.770,39,35,46,-0.047812,0.332101,0.942031
47583.070,36099.496,2021.087,0.276,17,10,13,0.296150,0.911793,-0.284479
47584.043,36099.559,2038.360,-0.265,41,39,46,-0.326111,0.772706,0.544589
47584.469,36099.602,2038.497,-0.281,37,33,40,-0.184943,0.765755,0.615967
47575.762,36103.816,1999.804,-1.243,17,13,18,-0.230123,0.883374,-0.408282
47582.730,36099.543,2020.811,-0.125,17,10,14,0.369249,0.909472,-0.191090
47575.539,36103.977,2000.289,-1.171,18,14,19,-0.143372,0.950007,-0.277365
47582.879,36099.910,2022.079,0.254,16,9,13,0.274370,0.920792,-0.277243
47582.324,36099.871,2021.422,0.260,16,10,12,0.378419,0.886967,-0.264744
47580.223,36100.582,2020.995,0.160,16,10,16,0.072364,0.975077,-0.209734
47581.570,36100.398,2021.962,0.185,16,10,13,0.396187,0.883572,-0.249673
47580.984,36100.578,2022.378,0.185,14,9,14,-0.031244,0.996580,0.076494
47579.027,36101.707,2009.955,-0.051,16,11,13,0.074005,0.921696,0.380788
47581.965,36100.293,2025.984,-0.023,15,10,17,0.156043,0.987513,-0.021641
47577.344,36103.215,2005.248,0.410,18,12,17,-0.629971,0.633313,0.449502
47582.645,36100.313,2027.395,0.003,17,11,15,-0.102573,0.977534,-0.184137
47582.633,36100.484,2028.185,0.047,17,10,14,-0.146873,0.975390,-0.164448
47581.320,36100.375,2013.703,0.240,17,9,11,-0.189939,0.876074,0.443190
47582.441,36099.617,2018.485,0.080,17,9,13,-0.024630,0.996962,0.073889
47581.824,36099.980,2015.475,0.223,17,10,13,-0.058497,0.967074,0.247681
47580.117,36101.344,2011.289,0.209,15,8,11,-0.034405,0.944229,0.327486
47588.152,36096.840,2042.202,-0.660,27,22,30,0.069524,0.549094,0.832864
47575.938,36104.051,2001.419,1.038,17,13,18,-0.234507,0.957903,0.165613
